ply
format ascii 1.0
comment VCGLIB generated
element vertex 634
property float x
property float y
property float z
property float nx
property float ny
property float nz
property uchar red
property uchar green
property uchar blue
property uchar alpha
element face 0
property list uchar int vertex_indices
end_header
-0.434836 0.13904 0.512127 0.0444001 0.0576831 0.997347 255 255 255 255 
-0.467818 0.195543 0.48723 -0.35679 -0.0513328 0.932773 255 255 255 255 
-0.486398 0.226684 0.503765 -0.310916 0.0989688 0.94527 255 255 255 255 
-0.489413 0.190335 0.505382 -0.432406 -0.0185834 0.901488 255 255 255 255 
-0.22092 0.00795128 0.490676 -0.0520689 0.0725296 0.996006 255 255 255 255 
-0.222764 0.0337352 0.493471 0.0557994 0.0267844 0.998083 255 255 255 255 
-0.243053 0.00336151 0.502709 -0.0479973 0.0217844 0.99861 255 255 255 255 
-0.147306 0.00741509 0.503135 0.0936381 0.00371246 0.995599 255 255 255 255 
-0.183869 0.0212767 0.504711 0.0866398 0.142612 0.985979 255 255 255 255 
-0.180963 0.0261142 0.490518 0.0811315 0.130984 0.988059 255 255 255 255 
-0.218356 0.0695692 0.498141 -0.0151721 -0.00667468 0.999863 255 255 255 255 
-0.224513 0.100523 0.494552 -0.0220004 -0.00240969 0.999755 255 255 255 255 
-0.238199 0.0712074 0.488358 -0.0164471 0.00734458 0.999838 255 255 255 255 
-0.0924649 0.0146528 0.505712 -0.00988653 0.0195713 0.99976 255 255 255 255 
-0.105496 0.029093 0.490464 -0.013143 -0.189637 0.981766 255 255 255 255 
-0.103303 0.00787347 0.491482 -0.0635748 0.0191431 0.997793 255 255 255 255 
-0.0394887 0.0246696 0.491372 -0.0362602 -0.153158 0.987536 255 255 255 255 
-0.0519329 0.0184258 0.508289 -0.0283677 -0.129428 0.991183 255 255 255 255 
-0.0460187 0.0139957 0.497777 -0.0574083 -0.169905 0.983787 255 255 255 255 
-0.0861304 0.0664468 0.50929 -0.0422766 0.0112656 0.999042 255 255 255 255 
-0.102783 0.0933707 0.498603 0.0227305 0.0859652 0.996039 255 255 255 255 
-0.103803 0.0842586 0.492802 0.0482877 -0.0176995 0.998677 255 255 255 255 
-0.212298 0.133459 0.509823 -0.00535351 -0.026754 0.999628 255 255 255 255 
-0.225864 0.154812 0.511216 -0.0399296 0.0513738 0.997881 255 255 255 255 
-0.240838 0.150958 0.508681 -0.126367 0.0376941 0.991267 255 255 255 255 
-0.150423 0.137402 0.492041 0.0179998 0.0500819 0.998583 255 255 255 255 
-0.162221 0.144029 0.489406 -0.02035 0.0118079 0.999723 255 255 255 255 
-0.179022 0.13646 0.512128 0.00362239 -0.00164276 0.999992 255 255 255 255 
-0.208149 0.192016 0.493457 -0.0550127 0.0333022 0.99793 255 255 255 255 
-0.22271 0.210717 0.511603 -0.0300336 -0.0141815 0.999448 255 255 255 255 
-0.234551 0.213639 0.493158 -0.0209025 -0.0353794 0.999155 255 255 255 255 
-0.470115 0.270235 0.508267 -0.0953485 0.0165688 0.995306 255 255 255 255 
-0.471836 0.286275 0.511005 -0.0284211 -0.0195293 0.999405 255 255 255 255 
-0.481206 0.256014 0.503077 -0.505145 -0.159852 0.848101 255 255 255 255 
-0.41798 0.264955 0.498559 0.108377 0.130997 0.985441 255 255 255 255 
-0.412206 0.287256 0.495373 -0.0790251 -0.0276674 0.996489 255 255 255 255 
-0.434868 0.256651 0.510585 0.0883201 0.0641736 0.994023 255 255 255 255 
-0.475252 0.323767 0.506582 -0.0961095 -0.0223533 0.99512 255 255 255 255 
-0.491512 0.342377 0.50793 -0.311144 0.0514518 0.948969 255 255 255 255 
-0.497813 0.335775 0.491196 -0.815287 0.125414 0.565312 255 255 255 255 
-0.349351 0.258488 0.490349 -0.0307452 0.0148655 0.999417 255 255 255 255 
-0.34982 0.268871 0.497611 -0.0843755 -0.0102291 0.996382 255 255 255 255 
-0.364172 0.258586 0.488569 -0.114251 -0.0348637 0.99284 255 255 255 255 
-0.279993 0.262522 0.492254 0.108476 0.0851136 0.990449 255 255 255 255 
-0.307575 0.276953 0.490779 -0.0607245 0.0350943 0.997537 255 255 255 255 
-0.28564 0.260672 0.512361 0.0606671 0.056773 0.996542 255 255 255 255 
-0.339173 0.330799 0.498073 -0.0428802 -0.0907122 0.994954 255 255 255 255 
-0.349333 0.352384 0.502504 0.0210067 -0.0572187 0.998141 255 255 255 255 
-0.351278 0.336983 0.502654 -0.0414267 0.0126464 0.999062 255 255 255 255 
-0.45712 0.399132 0.503339 -0.0505494 0.183634 0.981694 255 255 255 255 
-0.495547 0.403114 0.498585 -0.666261 -0.0113436 0.745633 255 255 255 255 
-0.478868 0.38912 0.508399 -0.360601 -0.0424833 0.931752 255 255 255 255 
-0.415287 0.391157 0.493065 0.115067 -0.0222948 0.993108 255 255 255 255 
-0.412502 0.419937 0.49945 0.0775826 0.0779338 0.993935 255 255 255 255 
-0.42153 0.38755 0.513817 0.117478 -0.0219204 0.992834 255 255 255 255 
-0.469498 0.455269 0.510268 -0.127963 0.0480467 0.990614 255 255 255 255 
-0.495305 0.47588 0.48973 -0.795257 0.192493 0.574902 255 255 255 255 
-0.488872 0.448143 0.494617 -0.476255 0.0283477 0.87885 255 255 255 255 
0.507867 0.478275 0.478457 0.923623 0.358828 0.13477 255 255 255 255 
0.493816 0.478682 0.480949 0.802582 0.562628 0.198273 255 255 255 255 
0.497507 0.491859 0.495798 0.684981 0.703248 0.190378 255 255 255 255 
0.506294 0.401687 0.484958 0.97265 -0.063131 0.223533 255 255 255 255 
0.511766 0.417909 0.45646 0.995081 -0.0948683 0.0285303 255 255 255 255 
0.505322 0.433233 0.481616 0.960808 -0.166905 0.221339 255 255 255 255 
0.498484 0.466385 0.428345 0.974086 0.223178 0.036732 255 255 255 255 
0.51332 0.483695 0.399061 0.984868 0.168916 0.0387688 255 255 255 255 
0.508892 0.472719 0.433687 0.975126 0.22008 -0.0263385 255 255 255 255 
0.490492 0.350311 0.496157 0.628328 0.141654 0.764943 255 255 255 255 
0.509566 0.354444 0.471577 0.965162 0.0904427 0.245527 255 255 255 255 
0.510157 0.360828 0.47547 0.980392 0.0708983 0.183861 255 255 255 255 
0.496679 0.285083 0.483454 0.923138 0.0271216 0.383511 255 255 255 255 
0.488909 0.298648 0.466727 0.853188 -0.219658 0.473098 255 255 255 255 
0.500984 0.289236 0.478658 0.922641 -0.0526162 0.382053 255 255 255 255 
0.50389 0.34511 0.425715 0.995412 0.0897899 -0.0330574 255 255 255 255 
0.498289 0.367395 0.395765 0.995837 0.0194297 0.0890605 255 255 255 255 
0.501636 0.3641 0.418747 0.991108 -0.00105476 0.133059 255 255 255 255 
0.503296 0.473579 0.347404 0.98867 0.101073 -0.110978 255 255 255 255 
0.493668 0.493094 0.338219 0.607703 0.791931 0.0595153 255 255 255 255 
0.493642 0.477681 0.360937 0.956101 0.189563 -0.223466 255 255 255 255 
0.500227 0.412486 0.360236 0.984435 0.174824 -0.0180058 255 255 255 255 
0.49233 0.432295 0.33128 0.99695 0.0777718 -0.00647315 255 255 255 255 
0.504753 0.415077 0.346263 0.998083 0.0512264 -0.034731 255 255 255 255 
0.487546 0.475444 0.297819 0.927081 0.36401 -0.0895422 255 255 255 255 
0.502904 0.482011 0.276227 0.98355 0.128815 -0.126638 255 255 255 255 
0.511244 0.493974 0.300264 0.967025 0.215349 0.135972 255 255 255 255 
0.510891 0.221775 0.481737 0.925772 -0.0279894 0.377045 255 255 255 255 
0.488891 0.235252 0.480106 0.842634 -0.103922 0.528364 255 255 255 255 
0.50227 0.224544 0.476551 0.862663 -0.0793393 0.499517 255 255 255 255 
0.505779 0.159704 0.489103 0.850563 -0.0027386 0.525866 255 255 255 255 
0.507443 0.169411 0.46161 0.998408 0.00666679 0.0560036 255 255 255 255 
0.493585 0.178554 0.493744 0.725015 0.135701 0.675232 255 255 255 255 
0.486167 0.223126 0.414348 0.98897 -0.109938 -0.0992609 255 255 255 255 
0.498828 0.241299 0.39313 0.983758 -0.157225 -0.0866038 255 255 255 255 
0.512673 0.240524 0.428519 0.993992 -0.0974957 -0.0497437 255 255 255 255 
0.494604 0.0962047 0.492324 0.779462 -0.0645294 0.623118 255 255 255 255 
0.502334 0.120616 0.472364 0.951503 -0.0972228 0.291874 255 255 255 255 
0.497235 0.115599 0.496882 0.750739 -0.0889571 0.654583 255 255 255 255 
0.510211 0.0239044 0.485833 0.960218 0.151189 0.234782 255 255 255 255 
0.500974 0.0529672 0.46742 0.969675 -0.00672331 0.244305 255 255 255 255 
0.509631 0.0339282 0.482091 0.967002 0.0416878 0.251336 255 255 255 255 
0.50756 0.0988468 0.408134 0.9979 -0.0449796 -0.0466032 255 255 255 255 
0.49809 0.118867 0.405324 0.999682 -0.0249784 0.00359332 255 255 255 255 
0.505927 0.0963233 0.412614 0.996017 -0.0291629 -0.0842655 255 255 255 255 
0.493028 0.227138 0.356374 0.994235 0.10612 -0.0153244 255 255 255 255 
0.497119 0.247895 0.333763 0.998749 -0.0206316 0.0455486 255 255 255 255 
0.491066 0.227699 0.370521 0.999446 -0.028525 -0.0171518 255 255 255 255 
0.496898 0.16878 0.370281 0.994536 0.0759474 0.071626 255 255 255 255 
0.502007 0.166751 0.340514 0.998224 0.0592226 0.0064466 255 255 255 255 
0.510742 0.184533 0.355958 0.997023 0.0647213 0.0418989 255 255 255 255 
0.503083 0.226932 0.309854 0.991225 -0.0148134 0.131354 255 255 255 255 
0.503031 0.239889 0.278793 0.995366 0.0922141 -0.0272569 255 255 255 255 
0.507582 0.230494 0.298741 0.995303 0.0521317 0.0815722 255 255 255 255 
0.502451 0.467857 0.245021 0.989721 0.142201 -0.0152231 255 255 255 255 
0.495141 0.49478 0.212753 0.734327 0.678756 -0.00735568 255 255 255 255 
0.49573 0.481431 0.241579 0.946092 0.323722 -0.0106453 255 255 255 255 
0.513553 0.399266 0.230078 0.996256 -0.0696469 -0.0512243 255 255 255 255 
0.508187 0.425521 0.227778 0.996705 0.00669177 -0.0808393 255 255 255 255 
0.509418 0.418938 0.228375 0.994637 -0.0221967 -0.101015 255 255 255 255 
0.498197 0.471321 0.173739 0.976118 0.142391 0.164069 255 255 255 255 
0.51236 0.483405 0.163358 0.87718 0.474047 0.0763881 255 255 255 255 
0.497083 0.477936 0.18043 0.903215 0.429125 -0.00732719 255 255 255 255 
0.503805 0.343825 0.226985 0.99806 -0.0577948 -0.0231717 255 255 255 255 
0.497785 0.349597 0.214145 0.997575 -0.0551263 -0.042478 255 255 255 255 
0.499454 0.372989 0.245395 0.999381 -0.0326582 -0.0130496 255 255 255 255 
0.499698 0.278411 0.228268 0.99963 0.00541608 -0.0266594 255 255 255 255 
0.495664 0.308604 0.223306 0.999983 -0.00548166 -0.00214024 255 255 255 255 
0.489386 0.307429 0.228136 0.999951 -0.00957183 -0.00255793 255 255 255 255 
0.49681 0.34738 0.16651 0.999193 0.0255564 -0.0309844 255 255 255 255 
0.489272 0.35866 0.162111 0.998632 0.0368065 0.0371368 255 255 255 255 
0.501252 0.35604 0.170576 0.999513 0.0290852 -0.0112764 255 255 255 255 
0.493115 0.456312 0.118056 0.996679 0.0759453 -0.0293969 255 255 255 255 
0.494656 0.475938 0.101748 0.944097 0.321232 -0.0741008 255 255 255 255 
0.50358 0.486211 0.121156 0.968855 -0.18851 -0.160576 255 255 255 255 
0.49166 0.399128 0.102757 0.999745 -0.0156674 -0.0162697 255 255 255 255 
0.48653 0.409732 0.0886414 0.998032 -0.0600195 0.018183 255 255 255 255 
0.511469 0.432499 0.113601 0.992288 0.0561536 -0.110505 255 255 255 255 
0.511133 0.46089 0.0438097 0.999416 0.0322066 -0.0114415 255 255 255 255 
0.489103 0.497759 0.0328023 0.496504 0.841411 0.213335 255 255 255 255 
0.510322 0.481495 0.0376612 0.992174 0.124372 0.0111055 255 255 255 255 
0.487316 -0.0256635 0.493239 0.492932 -0.0165977 0.86991 255 255 255 255 
0.509331 -0.0241521 0.478282 0.974196 -0.0512717 0.219803 255 255 255 255 
0.497851 -0.0150774 0.496291 0.437724 0.0907029 0.894523 255 255 255 255 
0.499746 -0.100958 0.492114 0.678046 0.00799171 0.734976 255 255 255 255 
0.487717 -0.0844523 0.476589 0.917019 0.126372 0.378293 255 255 255 255 
0.496856 -0.0684596 0.472935 0.953098 0.0917028 0.288434 255 255 255 255 
0.504492 -0.0431608 0.433992 0.992629 0.0311873 -0.11711 255 255 255 255 
0.488719 -0.0083327 0.409508 0.995476 0.0776496 -0.0547463 255 255 255 255 
0.489706 -0.00552827 0.432285 0.999697 0.0228013 -0.00930808 255 255 255 255 
0.503084 -0.161241 0.478137 0.98765 0.0656989 0.142235 255 255 255 255 
0.491251 -0.138361 0.459515 0.992439 0.021225 0.120893 255 255 255 255 
0.489423 -0.139868 0.494257 0.634938 -0.174362 0.752629 255 255 255 255 
0.504402 -0.232437 0.493478 0.881255 -0.105373 0.460745 255 255 255 255 
0.510794 -0.209768 0.470738 0.998724 -0.0466756 -0.0192699 255 255 255 255 
0.503041 -0.207345 0.491875 0.902898 0.105671 0.416665 255 255 255 255 
0.500355 -0.142681 0.428561 0.998022 0.00463126 0.0627012 255 255 255 255 
0.501736 -0.14056 0.394464 0.998384 -0.0233707 -0.051799 255 255 255 255 
0.510366 -0.144682 0.421884 0.997239 -0.0045515 0.074123 255 255 255 255 
0.490284 -0.0201891 0.350116 0.999075 -0.0342957 0.0259243 255 255 255 255 
0.499919 -0.0136481 0.337035 0.998534 -0.00108268 0.0541204 255 255 255 255 
0.503684 -0.0233977 0.367072 0.999996 0.00284317 2.85172e-005 255 255 255 255 
0.494047 -0.0990777 0.368553 0.993987 0.0990562 0.046666 255 255 255 255 
0.494718 -0.0708141 0.33348 0.996677 0.0608517 0.0541447 255 255 255 255 
0.49053 -0.0848101 0.351173 0.997065 -0.0131504 0.075428 255 255 255 255 
0.505643 -0.0320327 0.28434 0.997538 -0.047658 -0.0514547 255 255 255 255 
0.489903 -0.0141099 0.277307 0.997213 -0.0130494 -0.0734571 255 255 255 255 
0.512241 -0.0242113 0.283119 0.99341 -0.0638027 -0.0952192 255 255 255 255 
0.505731 -0.289366 0.477582 0.973419 -0.0487365 0.223788 255 255 255 255 
0.509154 -0.269676 0.463663 0.988984 0.13916 0.050449 255 255 255 255 
0.499474 -0.269104 0.481584 0.929233 0.120779 0.349197 255 255 255 255 
0.489171 -0.345789 0.476963 0.884621 -0.282443 0.371042 255 255 255 255 
0.506751 -0.333271 0.458062 0.984214 -0.0307417 0.174289 255 255 255 255 
0.491873 -0.317989 0.479922 0.860207 -0.23933 0.450295 255 255 255 255 
0.494156 -0.276766 0.41846 0.998295 0.0214842 -0.0542691 255 255 255 255 
0.506488 -0.26144 0.418632 0.995102 0.0912016 -0.0381482 255 255 255 255 
0.496689 -0.272978 0.417726 0.99695 0.048647 -0.0610324 255 255 255 255 
0.487172 -0.415342 0.492485 0.688792 0.0570001 0.722715 255 255 255 255 
0.500626 -0.402991 0.463329 0.956019 0.000245703 0.293305 255 255 255 255 
0.499946 -0.400424 0.493125 0.807364 0.00684357 0.590014 255 255 255 255 
0.501607 -0.46042 0.470632 0.955088 -0.0760863 0.286388 255 255 255 255 
0.488408 -0.44374 0.480828 0.838766 -0.0963453 0.5359 255 255 255 255 
0.486916 -0.449309 0.485506 0.838766 -0.0963454 0.5359 255 255 255 255 
0.512839 -0.397618 0.432584 0.991758 0.101766 -0.0778479 255 255 255 255 
0.497337 -0.395578 0.408174 0.995154 -0.00493194 -0.0982095 255 255 255 255 
0.488782 -0.393553 0.416513 0.998151 0.000423304 -0.0607775 255 255 255 255 
0.495136 -0.268564 0.363367 0.997988 -0.0258225 -0.0579097 255 255 255 255 
0.496754 -0.26271 0.347281 0.997862 -0.0339065 -0.0558773 255 255 255 255 
0.513222 -0.259328 0.357549 0.997078 -0.0602385 -0.0469722 255 255 255 255 
0.510433 -0.356078 0.370945 0.986456 0.153737 -0.0571755 255 255 255 255 
0.510774 -0.327026 0.348562 0.994686 -0.0279804 -0.0990779 255 255 255 255 
0.49084 -0.341551 0.370356 0.977743 0.176683 -0.113143 255 255 255 255 
0.492777 -0.294304 0.293511 0.991416 0.0404238 0.124341 255 255 255 255 
0.490253 -0.252851 0.293028 0.993162 -0.0322879 0.11219 255 255 255 255 
0.486846 -0.261447 0.30474 0.993753 -0.011668 0.110986 255 255 255 255 
0.49975 -0.0410059 0.221902 0.994926 -0.0151371 0.099469 255 255 255 255 
0.502767 -0.027842 0.211119 0.999261 -0.0379536 0.0061481 255 255 255 255 
0.513464 -0.00829549 0.227049 0.999379 0.017031 0.0308558 255 255 255 255 
0.51164 -0.0933022 0.233023 0.99826 -0.0301459 -0.0506843 255 255 255 255 
0.512791 -0.0773896 0.230286 0.999056 -0.0427615 -0.00761996 255 255 255 255 
0.5104 -0.0651925 0.226846 0.998745 -0.04003 0.0301001 255 255 255 255 
0.486506 -0.0196715 0.158629 0.997109 0.0660545 -0.0375651 255 255 255 255 
0.512987 -0.00986178 0.147428 0.999184 -0.0210281 0.0344976 255 255 255 255 
0.511019 -0.0238941 0.181455 0.999143 -0.0397566 -0.0115169 255 255 255 255 
0.486426 -0.158156 0.229132 0.991564 0.0239952 0.127374 255 255 255 255 
0.488499 -0.14063 0.221943 0.993086 0.0935694 0.0708938 255 255 255 255 
0.51314 -0.128775 0.221584 0.995617 0.0590186 -0.072552 255 255 255 255 
0.489097 -0.225455 0.23608 0.997211 -0.0713439 0.0219219 255 255 255 255 
0.497237 -0.215105 0.224873 0.997461 -0.0702892 0.0114659 255 255 255 255 
0.50486 -0.191248 0.241107 0.993818 0.053404 0.0973351 255 255 255 255 
0.494677 -0.145193 0.181222 0.996854 0.0528559 -0.0590556 255 255 255 255 
0.504933 -0.145679 0.143175 0.999633 0.00442336 0.0267388 255 255 255 255 
0.490681 -0.127093 0.164199 0.99875 0.0165998 0.0471505 255 255 255 255 
0.505211 -0.033961 0.111649 0.992065 -0.125723 -0.000176509 255 255 255 255 
0.503492 -0.0130629 0.0896148 0.993112 -0.0739276 0.0909014 255 255 255 255 
0.506787 -0.0259036 0.0970574 0.9768 -0.170541 0.129528 255 255 255 255 
0.491756 -0.080113 0.106709 0.995422 0.0667662 -0.068386 255 255 255 255 
0.511392 -0.0805747 0.0963705 0.995002 0.025266 -0.0966093 255 255 255 255 
0.492724 -0.0782193 0.105667 0.99883 0.0243817 -0.0417689 255 255 255 255 
0.505125 -0.0218231 0.0568001 0.999966 -0.0037348 -0.00729673 255 255 255 255 
0.497217 -0.0197847 0.022728 0.993498 0.104508 -0.0451567 255 255 255 255 
0.509194 -0.0247703 0.0500689 0.997098 0.0673713 -0.0354414 255 255 255 255 
0.505975 0.459288 -0.00340295 0.997088 -0.0616675 0.0448572 255 255 255 255 
0.506366 0.471755 -0.0371012 0.984098 0.141935 -0.106802 255 255 255 255 
0.508139 0.488639 -0.0242941 0.922636 0.370035 -0.108707 255 255 255 255 
0.48704 0.400746 -0.0250435 0.996657 -0.0811687 0.00925752 255 255 255 255 
0.509635 0.427697 -0.0257371 0.998505 -0.0490739 0.024085 255 255 255 255 
0.49864 0.413528 -0.00275427 0.994509 -0.104305 0.00851841 255 255 255 255 
0.488276 0.474295 -0.0675445 0.879322 0.450119 0.155519 255 255 255 255 
0.510643 0.488064 -0.0958428 0.973099 0.179207 -0.14479 255 255 255 255 
0.500449 0.487116 -0.0778193 0.85478 0.507007 -0.110884 255 255 255 255 
0.488701 0.343775 -0.0294023 0.996904 -0.0270689 0.0738163 255 255 255 255 
0.493303 0.369722 -0.0343762 0.997924 0.0159087 0.0624035 255 255 255 255 
0.507173 0.357585 -0.0034613 0.996113 -0.0477077 -0.0740443 255 255 255 255 
0.502923 0.274156 -0.0182497 0.998105 0.0539458 -0.0295875 255 255 255 255 
0.492123 0.305931 -0.0287428 0.999182 0.0247348 0.0319896 255 255 255 255 
0.509336 0.283086 -0.00896954 0.997261 0.0733804 -0.00925343 255 255 255 255 
0.49938 0.356278 -0.0822154 0.996812 -0.0794275 -0.0075599 255 255 255 255 
0.500758 0.368607 -0.106265 0.998082 0.0388316 -0.048217 255 255 255 255 
0.503641 0.368141 -0.0892611 0.998924 -0.0171843 -0.0430812 255 255 255 255 
0.495241 0.459184 -0.143566 0.986285 0.14233 0.0835769 255 255 255 255 
0.492058 0.4862 -0.161483 0.889254 0.456664 0.0261956 255 255 255 255 
0.49889 0.497729 -0.136645 0.864853 0.501989 -0.00602631 255 255 255 255 
0.488322 0.411899 -0.127737 0.997669 -0.0184659 0.065686 255 255 255 255 
0.499695 0.417434 -0.142835 0.99609 -0.0567299 0.0677282 255 255 255 255 
0.501897 0.420276 -0.129488 0.994963 -0.0203465 0.098156 255 255 255 255 
0.510884 0.468004 -0.200678 0.986297 0.111239 0.121838 255 255 255 255 
0.503561 0.497857 -0.230713 0.611213 0.787089 -0.083128 255 255 255 255 
0.488399 0.486821 -0.190267 0.407649 0.891092 0.199443 255 255 255 255 
0.487353 0.2325 -0.0120776 0.998706 -0.0508518 -9.74434e-005 255 255 255 255 
0.502011 0.242536 -0.0247366 0.998763 -0.0494981 0.00470099 255 255 255 255 
0.493778 0.235044 -0.0073525 0.997037 -0.0769104 -0.00142173 255 255 255 255 
0.500645 0.152893 -0.0238662 0.986874 0.0917987 0.132864 255 255 255 255 
0.503316 0.158666 -0.0343424 0.991081 0.0643519 0.116697 255 255 255 255 
0.498423 0.177263 -0.0128531 0.999118 0.0359032 0.0217643 255 255 255 255 
0.505191 0.209463 -0.0765092 0.999778 -0.00409319 0.0206633 255 255 255 255 
0.493524 0.244834 -0.103749 0.994735 0.0172903 -0.101014 255 255 255 255 
0.504648 0.243883 -0.0801704 0.995271 0.0442091 -0.0864964 255 255 255 255 
0.504791 0.0930206 -0.0194363 0.991189 0.0505351 0.122436 255 255 255 255 
0.502264 0.10908 -0.0200547 0.970679 0.0461045 0.235919 255 255 255 255 
0.492978 0.122141 -0.0131804 0.983085 -0.016929 0.182365 255 255 255 255 
0.511354 0.0255189 -0.00959791 0.999707 -0.0241301 -0.00187083 255 255 255 255 
0.49624 0.0394592 -0.0174278 0.999281 -0.0356403 -0.012897 255 255 255 255 
0.505512 0.0543102 -0.0281439 0.995735 -0.0144265 -0.0911267 255 255 255 255 
0.493108 0.0935145 -0.0701206 0.995814 -0.0749942 -0.0522581 255 255 255 255 
0.50403 0.121099 -0.0863224 0.997351 0.0694722 0.0215687 255 255 255 255 
0.487221 0.117438 -0.0810322 0.99821 0.0595258 0.00571704 255 255 255 255 
0.509392 0.225027 -0.128343 0.99914 0.0411582 -0.00507679 255 255 255 255 
0.501241 0.243099 -0.148165 0.997945 0.0553324 0.0323172 255 255 255 255 
0.512924 0.226816 -0.146529 0.999375 -0.00866658 0.0342622 255 255 255 255 
0.499735 0.156338 -0.132798 0.999828 0.017844 -0.00507713 255 255 255 255 
0.511954 0.163764 -0.151763 0.998349 0.0346418 -0.0458179 255 255 255 255 
0.502734 0.184151 -0.132922 0.9997 0.024117 -0.00438629 255 255 255 255 
0.49098 0.212213 -0.197413 0.997282 -0.0510273 -0.0531571 255 255 255 255 
0.488985 0.239391 -0.223255 0.999125 0.00999028 -0.0406205 255 255 255 255 
0.502988 0.229693 -0.208728 0.998083 0.0523482 -0.033013 255 255 255 255 
0.493595 0.465965 -0.268309 0.954142 0.272451 -0.124028 255 255 255 255 
0.489609 0.484452 -0.294714 0.580127 0.813819 0.033934 255 255 255 255 
0.492279 0.494062 -0.271354 0.528495 0.844833 -0.0833646 255 255 255 255 
0.492924 0.399092 -0.2767 0.995484 -0.0939181 0.013851 255 255 255 255 
0.493454 0.413275 -0.274032 0.993876 -0.103994 0.0373487 255 255 255 255 
0.505862 0.41474 -0.255278 0.98423 -0.12076 0.129263 255 255 255 255 
0.504991 0.470146 -0.330795 0.969028 0.227219 0.0967251 255 255 255 255 
0.51234 0.471484 -0.355792 0.987385 0.158247 0.0053768 255 255 255 255 
0.492995 0.494535 -0.3404 0.745878 0.666051 0.00657974 255 255 255 255 
0.492034 0.34231 -0.265939 0.999289 0.0186331 -0.0327785 255 255 255 255 
0.487978 0.37081 -0.292209 0.999879 -0.0153497 -0.00258001 255 255 255 255 
0.498078 0.372152 -0.26007 0.999952 -0.00861317 0.00474756 255 255 255 255 
0.497774 0.27189 -0.262944 0.992893 0.00423036 0.118932 255 255 255 255 
0.506046 0.292568 -0.289631 0.985684 0.118619 0.119821 255 255 255 255 
0.509085 0.302718 -0.273479 0.998609 -0.0170147 0.0499017 255 255 255 255 
0.494644 0.343719 -0.336972 0.996054 -0.0864624 0.0200403 255 255 255 255 
0.511697 0.349708 -0.353088 0.996685 -0.0641343 -0.0500579 255 255 255 255 
0.495997 0.362605 -0.335076 0.996783 -0.0792608 0.0118608 255 255 255 255 
0.508616 0.458421 -0.389727 0.999863 0.00135957 0.0164979 255 255 255 255 
0.504923 0.481327 -0.402962 0.973899 0.201736 0.104036 255 255 255 255 
0.511242 0.48206 -0.393484 0.961828 0.266296 0.0630386 255 255 255 255 
0.500888 0.407727 -0.383931 0.993856 0.0930648 -0.0599133 255 255 255 255 
0.495073 0.434023 -0.41644 0.998499 -0.0547699 -0.000682635 255 255 255 255 
0.502034 0.414437 -0.386151 0.999086 -0.00323983 -0.0426293 255 255 255 255 
0.503081 0.46006 -0.459743 0.971245 0.103877 -0.214227 255 255 255 255 
0.511481 0.497849 -0.477447 0.744043 0.622105 -0.243689 255 255 255 255 
0.494773 0.480044 -0.445574 0.915864 0.367413 -0.161866 255 255 255 255 
0.490592 -0.462683 -0.494372 0.686099 -0.221233 -0.693054 255 255 255 255 
0.494517 -0.472999 -0.477383 0.940835 -0.326097 -0.0921479 255 255 255 255 
0.496205 -0.488253 -0.479724 0.842877 -0.380217 -0.380779 255 255 255 255 
0.507362 -0.415773 -0.492994 0.867431 -0.00580199 -0.497524 255 255 255 255 
0.491822 -0.432081 -0.455461 0.997104 0.0230095 0.0724815 255 255 255 255 
0.497084 -0.42898 -0.498161 0.784661 -0.071163 -0.615827 255 255 255 255 
0.50114 -0.460893 -0.433815 0.995992 0.0758416 0.0474169 255 255 255 255 
0.511404 -0.482344 -0.401771 0.999177 0.0380189 0.0141673 255 255 255 255 
0.507077 -0.493818 -0.432727 0.912721 -0.401423 -0.0761541 255 255 255 255 
0.503589 -0.33246 -0.492412 0.796597 -0.00608069 -0.60448 255 255 255 255 
0.497629 -0.362107 -0.473504 0.982835 -0.0358503 -0.180968 255 255 255 255 
0.49492 -0.366456 -0.479351 0.982559 -0.0320146 -0.183177 255 255 255 255 
0.500455 -0.276924 -0.482789 0.936091 0.125587 -0.328575 255 255 255 255 
0.503519 -0.299731 -0.461695 0.990238 0.0391133 -0.133783 255 255 255 255 
0.496234 -0.284874 -0.492716 0.706393 -0.0118937 -0.70772 255 255 255 255 
0.499614 -0.333778 -0.43394 0.985436 -0.0482294 -0.163063 255 255 255 255 
0.510516 -0.361479 -0.40646 0.989881 -0.0162765 -0.140965 255 255 255 255 
0.504779 -0.373167 -0.412783 0.99163 -0.0381318 -0.123352 255 255 255 255 
0.489711 -0.462633 -0.359933 0.96826 -0.243248 0.0574672 255 255 255 255 
0.48741 -0.47129 -0.347639 0.899849 -0.435236 -0.0290126 255 255 255 255 
0.488387 -0.481248 -0.362469 0.441671 -0.896934 -0.0208901 255 255 255 255 
0.48816 -0.416971 -0.350185 0.999354 0.0352365 0.00710771 255 255 255 255 
0.494334 -0.432094 -0.352471 0.998506 -0.0208992 -0.0504944 255 255 255 255 
0.489152 -0.428097 -0.348676 0.998724 -0.0456035 -0.0216945 255 255 255 255 
0.498782 -0.459507 -0.30903 0.99692 0.0006905 -0.0784278 255 255 255 255 
0.511892 -0.490611 -0.292859 0.940981 -0.338458 0.00106411 255 255 255 255 
0.501634 -0.480078 -0.293468 0.907685 -0.414921 -0.0628438 255 255 255 255 
0.511508 -0.231024 -0.491184 0.901882 -0.0468141 -0.429438 255 255 255 255 
0.493263 -0.232182 -0.460878 0.96346 -0.129178 -0.234644 255 255 255 255 
0.504701 -0.221443 -0.488519 0.930826 0.0184981 -0.364996 255 255 255 255 
0.49905 -0.154974 -0.474711 0.916907 -0.0327678 -0.397754 255 255 255 255 
0.49569 -0.184566 -0.463021 0.964769 0.150605 -0.215728 255 255 255 255 
0.48626 -0.184478 -0.492746 0.348404 0.0443937 -0.936293 255 255 255 255 
0.491284 -0.216896 -0.412263 0.999829 -0.000111908 0.0184695 255 255 255 255 
0.510109 -0.238625 -0.407151 0.998151 0.0151734 -0.0588517 255 255 255 255 
0.496831 -0.238558 -0.432275 0.992566 -0.0827294 0.089262 255 255 255 255 
0.50943 -0.0814332 -0.491464 0.937415 0.00971637 -0.34808 255 255 255 255 
0.511479 -0.109951 -0.462911 0.996435 -0.0223347 -0.0813551 255 255 255 255 
0.507796 -0.11933 -0.491353 0.870606 -0.111835 -0.479101 255 255 255 255 
0.490825 -0.0235788 -0.496965 0.730119 0.0687535 -0.679853 255 255 255 255 
0.5098 -0.0493762 -0.459589 0.993298 0.0862159 -0.0769815 255 255 255 255 
0.505939 -0.0362404 -0.48062 0.982958 0.0647302 -0.172055 255 255 255 255 
0.51201 -0.0832253 -0.421257 0.996618 0.0740672 0.0355829 255 255 255 255 
0.504024 -0.119397 -0.405318 0.997923 -0.0563536 0.0311954 255 255 255 255 
0.509479 -0.107207 -0.423172 0.999582 0.0256861 -0.013307 255 255 255 255 
0.510367 -0.230257 -0.353828 0.998018 0.0452684 0.043708 255 255 255 255 
0.503027 -0.230949 -0.334503 0.997938 0.0641315 0.00260733 255 255 255 255 
0.500276 -0.22429 -0.366394 0.995027 0.0989562 -0.0113253 255 255 255 255 
0.499574 -0.143745 -0.359583 0.996054 -0.040122 0.0791686 255 255 255 255 
0.488904 -0.16016 -0.357389 0.997895 0.0497379 0.0416068 255 255 255 255 
0.48963 -0.184553 -0.350785 0.990356 0.133199 0.038123 255 255 255 255 
0.499056 -0.216273 -0.295592 0.987848 0.154001 -0.0209985 255 255 255 255 
0.496963 -0.244822 -0.283981 0.998594 -0.00131058 0.0529874 255 255 255 255 
0.508992 -0.24215 -0.304481 0.993673 0.0829107 0.0757663 255 255 255 255 
0.502353 -0.482006 -0.228197 0.882243 -0.403876 0.241933 255 255 255 255 
0.497679 -0.471898 -0.205165 0.883813 -0.44741 0.136741 255 255 255 255 
0.513656 -0.471276 -0.234231 0.996342 -0.0574945 0.0632159 255 255 255 255 
0.505148 -0.400013 -0.231112 0.997993 -0.0477547 -0.0415847 255 255 255 255 
0.490243 -0.415962 -0.213018 0.999605 0.0150921 -0.0237278 255 255 255 255 
0.505098 -0.427438 -0.24671 0.991752 0.127869 -0.00875321 255 255 255 255 
0.507159 -0.45732 -0.168243 0.988178 -0.151101 0.0259547 255 255 255 255 
0.500275 -0.483373 -0.151602 0.878207 -0.475037 0.0556157 255 255 255 255 
0.501278 -0.473838 -0.18284 0.904184 -0.423227 0.0577009 255 255 255 255 
0.509703 -0.341903 -0.236321 0.997159 0.0513373 -0.0551244 255 255 255 255 
0.504958 -0.365291 -0.224657 0.998465 -0.0420628 0.036044 255 255 255 255 
0.504206 -0.360679 -0.223825 0.998959 -0.00233906 0.0455626 255 255 255 255 
0.487435 -0.270914 -0.223081 0.9988 -0.0477898 -0.0107261 255 255 255 255 
0.494595 -0.283529 -0.212446 0.999685 0.00657392 -0.0242232 255 255 255 255 
0.500435 -0.296485 -0.231404 0.997143 0.0733166 -0.0181769 255 255 255 255 
0.487007 -0.350825 -0.161834 0.995501 0.0918858 0.023108 255 255 255 255 
0.502536 -0.370822 -0.148935 0.997313 0.073137 0.00422131 255 255 255 255 
0.489073 -0.349013 -0.159292 0.995658 0.0823281 0.0434554 255 255 255 255 
0.507312 -0.480665 -0.101448 0.988606 -0.149162 0.0202052 255 255 255 255 
0.50583 -0.490131 -0.100224 0.745608 -0.665013 0.042733 255 255 255 255 
0.495305 -0.491556 -0.108953 0.662253 -0.746394 0.0656983 255 255 255 255 
0.492646 -0.412494 -0.107091 0.998488 0.047289 0.0280163 255 255 255 255 
0.508501 -0.410857 -0.101673 0.999588 -0.0226673 0.0175992 255 255 255 255 
0.496025 -0.419758 -0.10369 0.996372 0.0841333 0.0128423 255 255 255 255 
0.493464 -0.473703 -0.0402779 0.95949 -0.273511 0.0676045 255 255 255 255 
0.509744 -0.483433 -0.0292164 0.976789 -0.21355 0.0167256 255 255 255 255 
0.492472 -0.488645 -0.0596129 0.65839 -0.75169 0.0385416 255 255 255 255 
0.498126 0.0306939 -0.492225 0.935135 -0.124622 -0.331649 255 255 255 255 
0.492155 0.0166572 -0.475512 0.930727 0.0348133 -0.364054 255 255 255 255 
0.503717 0.0204901 -0.493037 0.950611 -0.0872479 -0.297869 255 255 255 255 
0.506996 0.0861955 -0.487809 0.796464 0.256989 -0.54736 255 255 255 255 
0.498868 0.0746351 -0.472003 0.99822 -0.00860439 -0.0590189 255 255 255 255 
0.509981 0.0678244 -0.495729 0.757522 0.136896 -0.638295 255 255 255 255 
0.50829 0.0369582 -0.409917 0.996057 0.0647486 -0.0606502 255 255 255 255 
0.507701 0.00419201 -0.396273 0.993174 -0.0556333 0.102516 255 255 255 255 
0.491572 0.0144017 -0.416634 0.997129 -0.00128414 -0.0757073 255 255 255 255 
0.486192 0.152637 -0.47553 0.828844 0.120425 -0.546366 255 255 255 255 
0.5111 0.143347 -0.469194 0.976833 -0.00558849 -0.21393 255 255 255 255 
0.513241 0.134556 -0.475955 0.983767 0.0959402 -0.151649 255 255 255 255 
0.488308 0.227252 -0.491931 0.722124 -0.0650936 -0.688695 255 255 255 255 
0.510042 0.206403 -0.460045 0.991681 -0.00395571 -0.128662 255 255 255 255 
0.513723 0.193904 -0.472118 0.976806 -0.00649976 -0.214029 255 255 255 255 
0.511985 0.168706 -0.418098 0.997896 0.0198897 -0.0617135 255 255 255 255 
0.507215 0.130667 -0.411128 0.993637 -0.0185651 0.111092 255 255 255 255 
0.501571 0.147401 -0.426813 0.996709 0.0783265 0.0208822 255 255 255 255 
0.493695 0.0328438 -0.366683 0.993128 0.0629518 0.0986596 255 255 255 255 
0.493461 0.0153971 -0.333628 0.997557 -0.0121824 -0.0687819 255 255 255 255 
0.489071 0.00758254 -0.367733 0.999588 -0.0251537 -0.0138591 255 255 255 255 
0.499965 0.101809 -0.34939 0.991592 -0.062705 -0.113199 255 255 255 255 
0.506655 0.0797797 -0.356179 0.996373 0.0451779 -0.0721032 255 255 255 255 
0.49284 0.0815439 -0.365599 0.999987 -0.00037159 0.00509281 255 255 255 255 
0.49906 0.0267588 -0.304136 0.998322 0.057846 0.00268299 255 255 255 255 
0.512459 0.00742693 -0.270199 0.99954 0.0284656 -0.010477 255 255 255 255 
0.487819 0.0149987 -0.3078 0.997648 0.0677224 0.0106189 255 255 255 255 
0.495187 0.284488 -0.482107 0.860181 -0.0349201 -0.508793 255 255 255 255 
0.50273 0.253134 -0.455253 0.990433 0.0300608 -0.134681 255 255 255 255 
0.497955 0.265175 -0.490225 0.879675 0.0288962 -0.474697 255 255 255 255 
0.48977 0.350968 -0.49481 0.831176 0.085826 -0.549346 255 255 255 255 
0.503438 0.336933 -0.475489 0.961484 0.0852108 -0.26132 255 255 255 255 
0.487756 0.321516 -0.485983 0.856425 0.0269932 -0.515565 255 255 255 255 
0.491433 0.283702 -0.424167 0.983547 0.157027 0.0893222 255 255 255 255 
0.50006 0.255231 -0.410402 0.993339 0.1152 -0.00266641 255 255 255 255 
0.505977 0.252606 -0.414961 0.992574 0.121576 0.00399991 255 255 255 255 
0.497645 0.392735 -0.47753 0.898371 -0.202561 -0.389743 255 255 255 255 
0.50108 0.403042 -0.467451 0.994936 -0.0772035 -0.0643578 255 255 255 255 
0.492482 0.387255 -0.471826 0.911457 -0.135985 -0.38827 255 255 255 255 
0.509216 0.478842 -0.475593 0.955417 0.206442 -0.211094 255 255 255 255 
0.489909 0.444474 -0.45811 0.977336 0.178095 -0.114442 255 255 255 255 
0.489042 0.450947 -0.489443 0.489626 0.00936521 -0.871882 255 255 255 255 
0.49289 0.410921 -0.431638 0.999526 0.0241922 0.0190635 255 255 255 255 
0.509608 0.394524 -0.414983 0.999747 -0.0202852 0.00967621 255 255 255 255 
0.499348 0.38291 -0.423262 0.999808 0.0113677 0.0159625 255 255 255 255 
0.511151 0.268674 -0.349107 0.996041 0.0468177 0.0755646 255 255 255 255 
0.509772 0.26216 -0.346487 0.998897 0.0456707 0.0109495 255 255 255 255 
0.487363 0.278009 -0.366088 0.993885 0.0914523 -0.0618722 255 255 255 255 
0.492429 0.33636 -0.369991 0.994904 -0.0600275 -0.0810089 255 255 255 255 
0.495137 0.339844 -0.341664 0.997636 -0.0672527 0.0141242 255 255 255 255 
0.498425 0.324294 -0.358091 0.997878 0.034451 -0.0552569 255 255 255 255 
0.490289 0.279445 -0.308066 0.999808 0.0190054 -0.00479924 255 255 255 255 
0.504269 0.267714 -0.271103 0.989025 -0.0293566 0.1448 255 255 255 255 
0.508629 0.253908 -0.288218 0.994007 -0.105566 0.0283912 255 255 255 255 
0.513766 0.039854 -0.243825 0.998457 0.00625188 -0.0551815 255 255 255 255 
0.502047 0.0283477 -0.222062 0.986133 -0.140464 -0.0883869 255 255 255 255 
0.499615 0.00888243 -0.231821 0.995208 0.0345683 0.0914693 255 255 255 255 
0.497648 0.0977803 -0.226179 0.995359 0.0707577 0.065229 255 255 255 255 
0.500115 0.0740177 -0.231552 0.992927 0.0864469 0.0813797 255 255 255 255 
0.49578 0.0821426 -0.232168 0.996607 0.0513135 0.0643531 255 255 255 255 
0.493915 0.0232735 -0.18103 0.993218 -0.0733147 -0.0902371 255 255 255 255 
0.513138 0.00800879 -0.145327 0.999491 -0.0202821 -0.0246209 255 255 255 255 
0.510358 0.0215819 -0.182072 0.986871 -0.124296 -0.103136 255 255 255 255 
0.505997 0.169635 -0.247013 0.992308 -0.0607415 0.107866 255 255 255 255 
0.486718 0.151332 -0.216623 0.999784 0.020415 0.00380033 255 255 255 255 
0.489407 0.147165 -0.236469 0.992952 0.0542442 0.105374 255 255 255 255 
0.498013 0.221886 -0.227226 0.998919 -0.00694804 -0.0459629 255 255 255 255 
0.509974 0.204289 -0.225949 0.99781 0.0635172 0.0184631 255 255 255 255 
0.494085 0.192062 -0.243549 0.997803 0.0654354 0.010392 255 255 255 255 
0.508878 0.159961 -0.175102 0.988374 0.0211404 -0.150568 255 255 255 255 
0.50229 0.129108 -0.157542 0.996349 0.0025246 -0.0853332 255 255 255 255 
0.505802 0.137724 -0.162221 0.997791 -0.0387665 -0.0539507 255 255 255 255 
0.509384 0.0360364 -0.103917 0.986867 0.0304761 0.158634 255 255 255 255 
0.506148 0.0245656 -0.105136 0.985746 0.0741884 0.151001 255 255 255 255 
0.508242 0.00193815 -0.114679 0.990924 0.004773 0.134339 255 255 255 255 
0.495225 0.103549 -0.0972367 0.996013 0.00500958 0.0890655 255 255 255 255 
0.512846 0.0851932 -0.103103 0.992842 -0.0435267 0.111221 255 255 255 255 
0.512071 0.0672096 -0.117773 0.990447 -0.0723465 0.117391 255 255 255 255 
0.497275 0.0174481 -0.0574098 0.997445 0.0250558 -0.0668988 255 255 255 255 
0.50897 0.0183368 -0.0189476 0.999018 -0.042462 -0.0126767 255 255 255 255 
0.497864 0.0118958 -0.0577955 0.999207 0.032561 -0.0229316 255 255 255 255 
0.501684 -0.468028 0.00354588 0.962861 -0.269547 0.015579 255 255 255 255 
0.496628 -0.485468 0.0231906 0.897698 -0.431131 0.0909137 255 255 255 255 
0.493564 -0.475867 0.0200351 0.923906 -0.324231 0.203157 255 255 255 255 
0.495814 -0.418065 0.01338 0.995368 0.037391 -0.0885663 255 255 255 255 
0.503299 -0.423887 0.0430729 0.996102 -0.0851495 -0.0230312 255 255 255 255 
0.50572 -0.411239 0.00880716 0.996141 0.0621883 -0.0619299 255 255 255 255 
0.502179 -0.472273 0.0909907 0.980904 -0.168861 -0.096508 255 255 255 255 
0.511952 -0.489475 0.0875648 0.890391 -0.452094 -0.0530607 255 255 255 255 
0.503691 -0.481697 0.0881067 0.919656 -0.391593 -0.0297878 255 255 255 255 
0.495943 -0.349727 0.0286429 0.995884 -0.0898887 0.0115949 255 255 255 255 
0.50968 -0.35114 0.0315803 0.998918 -0.0464431 0.00224955 255 255 255 255 
0.492764 -0.364778 0.00960975 0.99317 0.0595172 0.100356 255 255 255 255 
0.501875 -0.286359 0.0292882 0.998695 -0.0303602 0.0410592 255 255 255 255 
0.500354 -0.287166 0.0448455 0.994384 -0.0446451 -0.0959576 255 255 255 255 
0.488398 -0.286799 0.00412774 0.999061 -0.0281801 0.0328979 255 255 255 255 
0.486696 -0.357477 0.0759257 0.997331 -0.0729905 -0.00164469 255 255 255 255 
0.495812 -0.354501 0.105926 0.993069 -0.107302 -0.0479709 255 255 255 255 
0.491045 -0.35669 0.0861708 0.998785 -0.0211239 0.0445165 255 255 255 255 
0.508209 -0.463777 0.150269 0.992938 -0.091157 -0.0759314 255 255 255 255 
0.508995 -0.494428 0.167477 0.939626 -0.325732 0.104895 255 255 255 255 
0.505113 -0.470648 0.152327 0.992913 -0.104644 -0.0563244 255 255 255 255 
0.504013 -0.413947 0.154166 0.999014 0.00513411 -0.0441034 255 255 255 255 
0.499777 -0.430751 0.148159 0.998861 0.0166607 0.044708 255 255 255 255 
0.494265 -0.416514 0.141438 0.995842 0.087824 -0.0241972 255 255 255 255 
0.497232 -0.463669 0.204645 0.981634 -0.147289 -0.121242 255 255 255 255 
0.487623 -0.473622 0.229429 0.905536 -0.424073 0.0128921 255 255 255 255 
0.497636 -0.479167 0.203357 0.955853 -0.293817 0.00401945 255 255 255 255 
0.512586 -0.207313 0.0183444 0.999857 -0.0169301 0.000183303 255 255 255 255 
0.486487 -0.237247 0.038133 0.99835 0.0571891 0.00524375 255 255 255 255 
0.50077 -0.244303 0.0174996 0.998586 0.0106879 0.0520736 255 255 255 255 
0.503136 -0.15271 0.00921733 0.998195 -0.0159974 0.0578926 255 255 255 255 
0.496586 -0.180112 0.0186042 0.99891 -0.0464593 0.00448003 255 255 255 255 
0.507134 -0.16278 0.0216081 0.994827 0.0710043 0.0726514 255 255 255 255 
0.487403 -0.213172 0.0762572 0.990566 0.0735704 -0.115616 255 255 255 255 
0.506798 -0.221126 0.085283 0.998392 0.0264788 -0.0501329 255 255 255 255 
0.486677 -0.221404 0.0869016 0.990979 0.0735472 -0.112029 255 255 255 255 
0.508108 -0.0804801 0.0167511 0.995779 -0.0658691 -0.0639171 255 255 255 255 
0.502942 -0.114405 0.0304148 0.994069 0.033534 0.103449 255 255 255 255 
0.502918 -0.107528 0.0203649 0.99795 0.058585 0.0257506 255 255 255 255 
0.503293 -0.0225411 0.00582258 0.995273 0.0640858 -0.0729641 255 255 255 255 
0.508067 -0.0539153 0.0250817 0.996324 -0.0835873 -0.0187626 255 255 255 255 
0.508394 -0.0484637 0.00586317 0.994314 -0.039309 -0.0989691 255 255 255 255 
0.509436 -0.0855798 0.0909949 0.994856 -0.00469732 -0.101187 255 255 255 255 
0.499082 -0.120483 0.101045 0.998987 0.0423156 -0.0153027 255 255 255 255 
0.504106 -0.118192 0.0658201 0.999122 0.0386919 -0.0160971 255 255 255 255 
0.496854 -0.207645 0.133602 0.998119 0.0352856 0.0501305 255 255 255 255 
0.509036 -0.223619 0.16581 0.994085 -0.104362 -0.0300671 255 255 255 255 
0.497564 -0.239978 0.145599 0.996876 -0.0229218 0.0755843 255 255 255 255 
0.500467 -0.16289 0.131068 0.995949 0.074019 0.0510574 255 255 255 255 
0.511598 -0.177023 0.155786 0.997789 0.0612704 -0.0257409 255 255 255 255 
0.49077 -0.17837 0.150431 0.996933 0.0736448 -0.0264817 255 255 255 255 
0.512083 -0.228428 0.206405 0.990071 -0.129573 -0.0545096 255 255 255 255 
0.510889 -0.234437 0.219202 0.994983 -0.0950425 -0.0312401 255 255 255 255 
0.489066 -0.23517 0.196755 0.996345 -0.0854133 -0.00093924 255 255 255 255 
0.508185 -0.479215 0.277565 0.926087 -0.368665 -0.0803015 255 255 255 255 
0.490148 -0.49645 0.286474 0.504821 -0.851345 -0.142716 255 255 255 255 
0.512949 -0.490751 0.270205 0.800324 -0.598377 0.0377718 255 255 255 255 
0.511324 -0.409781 0.264319 0.998648 -0.0460502 0.0241229 255 255 255 255 
0.489824 -0.413053 0.284637 0.998327 -0.0415072 -0.0402437 255 255 255 255 
0.486679 -0.415462 0.26275 0.998191 -0.059358 -0.00960606 255 255 255 255 
0.512877 -0.47785 0.328425 0.958483 -0.263644 0.108635 255 255 255 255 
0.486776 -0.493545 0.340157 0.466027 -0.88295 0.0567219 255 255 255 255 
0.494047 -0.493573 0.330551 0.762699 -0.643019 0.0694034 255 255 255 255 
0.50756 -0.345346 0.268096 0.994244 -0.053164 0.0930176 255 255 255 255 
0.505201 -0.366035 0.29481 0.993606 0.0786283 0.0810216 255 255 255 255 
0.508822 -0.353484 0.254002 0.998356 -0.0568734 0.00716769 255 255 255 255 
0.506655 -0.288894 0.269057 0.992039 0.116872 0.0468981 255 255 255 255 
0.504158 -0.309255 0.279177 0.989014 0.0531224 0.137949 255 255 255 255 
0.513415 -0.296175 0.252415 0.999326 -0.00372139 0.0365148 255 255 255 255 
0.495547 -0.331705 0.316943 0.996928 -0.00261338 0.0782802 255 255 255 255 
0.500957 -0.35526 0.355565 0.970421 0.17693 -0.164252 255 255 255 255 
0.486754 -0.370975 0.340901 0.98064 0.105048 -0.16526 255 255 255 255 
0.496045 -0.456613 0.397941 0.972787 -0.144742 -0.180927 255 255 255 255 
0.49868 -0.476731 0.405559 0.937448 -0.338202 -0.0825326 255 255 255 255 
0.496179 -0.490869 0.399051 0.921265 -0.383532 -0.0646129 255 255 255 255 
0.48929 -0.395247 0.389324 0.998556 -0.0448555 0.0295663 255 255 255 255 
0.498281 -0.410613 0.408598 0.989337 -0.086022 -0.117529 255 255 255 255 
0.506645 -0.411302 0.393506 0.992608 -0.103519 -0.0633497 255 255 255 255 
0.502466 -0.457906 0.455045 0.98401 -0.163402 0.0708874 255 255 255 255 
0.491951 -0.484972 0.481646 0.897146 -0.36412 0.250092 255 255 255 255 
0.500982 -0.484429 0.461332 0.957668 -0.265082 0.112267 255 255 255 255 
0.476897 0.507883 0.46955 0.203286 0.955826 0.212302 255 255 255 255 
0.472787 0.486968 0.493243 0.0303874 0.719221 0.694117 255 255 255 255 
0.489474 0.505588 0.480986 0.37008 0.911108 0.181446 255 255 255 255 
0.497907 0.493434 0.407642 0.671623 0.738557 -0.0587902 255 255 255 255 
0.470441 0.508102 0.412616 -0.00492766 0.99398 -0.109453 255 255 255 255 
0.491743 0.500957 0.4311 0.664337 0.736381 0.12806 255 255 255 255 
0.427263 0.50362 0.465647 -0.148057 0.945354 0.290492 255 255 255 255 
0.407149 0.486282 0.495529 0.0220744 0.443995 0.895757 255 255 255 255 
0.42649 0.494441 0.477236 0.106981 0.903286 0.415487 255 255 255 255 
0.485441 0.509023 0.337851 0.318516 0.939181 0.128397 255 255 255 255 
0.479457 0.507741 0.362215 0.177693 0.983312 0.0390296 255 255 255 255 
0.481755 0.495642 0.35942 0.277859 0.960622 0.000330275 255 255 255 255 
0.486721 0.506652 0.275982 0.304139 0.945496 -0.116351 255 255 255 255 
0.461652 0.507116 0.284036 0.0378057 0.996514 -0.074362 255 255 255 255 
0.496885 0.508661 0.29154 0.379515 0.925124 0.0106553 255 255 255 255 
0.419266 0.497429 0.354124 0.0315035 0.995713 -0.0869612 255 255 255 255 
0.405614 0.511206 0.36418 0.123347 0.988434 -0.0882208 255 255 255 255 
0.420252 0.506309 0.34968 -0.0284574 0.999593 0.00211572 255 255 255 255 
0.356124 0.504301 0.455357 0.100803 0.993148 -0.0591324 255 255 255 255 
0.347265 0.500458 0.491993 -0.0125262 0.828477 0.559883 255 255 255 255 
0.35814 0.509244 0.48659 -0.076283 0.914826 0.396578 255 255 255 255 
0.367083 0.489825 0.41836 0.0847206 0.996146 0.0227165 255 255 255 255 
0.337392 0.499408 0.418765 0.0920899 0.995571 0.018937 255 255 255 255 
0.347779 0.490947 0.423752 0.127994 0.991185 0.0341946 255 255 255 255 
0.291573 0.486533 0.469059 0.0409597 0.914458 0.402602 255 255 255 255 
0.280868 0.506751 0.475478 0.133208 0.935983 0.32587 255 255 255 255 
0.29644 0.500896 0.48718 -0.0215666 0.900453 0.434419 255 255 255 255 
0.496589 0.492473 0.208005 0.841775 0.539785 -0.00685706 255 255 255 255 
0.474952 0.48862 0.246092 0.52247 0.851914 -0.0356145 255 255 255 255 
0.485476 0.489304 0.228422 0.653592 0.756813 0.00723549 255 255 255 255 
0.472765 0.494194 0.164468 0.416256 0.907124 0.062102 255 255 255 255 
0.471514 0.501488 0.16129 0.255283 0.963875 -0.0759933 255 255 255 255 
0.473151 0.508538 0.165654 0.302604 0.948694 -0.0917065 255 255 255 255 
0.433992 0.502973 0.221243 -0.0411996 0.998433 0.0378705 255 255 255 255 
0.400379 0.51057 0.238769 0.023044 0.993365 0.11267 255 255 255 255 
0.416185 0.488066 0.232705 -0.0766501 0.986433 0.145171 255 255 255 255 
0.484767 0.497985 0.0992942 0.271233 0.953991 0.127801 255 255 255 255 
0.457134 0.489851 0.109697 0.258568 0.965156 -0.0402055 255 255 255 255 
0.495476 0.493604 0.116242 0.380241 0.92181 -0.0753844 255 255 255 255 
0.483989 0.499097 0.0251519 0.282754 0.903 0.323483 255 255 255 255 
0.455915 0.494163 0.0369356 0.157687 0.987346 0.0168383 255 255 255 255 
0.490453 0.491596 0.0549665 0.645081 0.739601 -0.191994 255 255 255 255 
0.420178 0.490461 0.0984273 0.116876 0.99296 0.0192499 255 255 255 255 
0.412595 0.49936 0.11684 -0.00669638 0.999573 -0.0284488 255 255 255 255 
0.430678 0.508086 0.104514 0.166348 0.984018 0.0635417 255 255 255 255 
0.357282 0.495509 0.219692 -0.0891975 0.995143 0.0416322 255 255 255 255 
0.3551 0.488159 0.23909 0.0603064 0.997414 0.0391042 255 255 255 255 
0.352386 0.486525 0.245246 0.0588171 0.998204 0.0113568 255 255 255 255 
0.351278 0.499108 0.153134 -0.036308 0.99889 -0.0299984 255 255 255 255 
0.331827 0.502139 0.165154 0.020879 0.999753 -0.00760802 255 255 255 255 
0.359785 0.503631 0.179351 -0.0771866 0.994809 -0.0663175 255 255 255 255 
0.308945 0.487776 0.211174 0.0597127 0.992539 -0.106303 255 255 255 255 
0.278764 0.497168 0.234997 0.127553 0.990832 0.0445325 255 255 255 255 
0.290757 0.512205 0.239668 0.0384293 0.999257 0.00279484 255 255 255 255 
0.224687 0.497176 0.482594 -0.0665654 0.959954 0.272136 255 255 255 255 
0.232466 0.503022 0.483478 -0.099765 0.976787 0.189561 255 255 255 255 
0.242261 0.504678 0.483584 -0.166281 0.951485 0.258896 255 255 255 255 
0.229277 0.504679 0.406768 0.0368301 0.996812 0.070781 255 255 255 255 
0.206025 0.496399 0.431926 -0.0410101 0.989176 0.140889 255 255 255 255 
0.246607 0.501193 0.413636 0.0178819 0.998121 0.0586063 255 255 255 255 
0.168989 0.488974 0.460976 -0.021604 0.982087 0.187187 255 255 255 255 
0.152905 0.491787 0.492719 0.01526 0.803682 0.594863 255 255 255 255 
0.167762 0.50025 0.487078 -0.0160331 0.899683 0.436249 255 255 255 255 
0.225675 0.506883 0.355047 -0.0550986 0.986334 -0.15527 255 255 255 255 
0.229901 0.512941 0.36569 0.00977362 0.994811 -0.10127 255 255 255 255 
0.242072 0.501109 0.353514 0.0521485 0.992133 -0.113808 255 255 255 255 
0.223959 0.494815 0.276884 -0.0722355 0.994617 0.0742959 255 255 255 255 
0.230311 0.495869 0.300531 -0.00108969 0.997182 0.0750123 255 255 255 255 
0.230877 0.511066 0.284489 -0.0215213 0.992707 0.11862 255 255 255 255 
0.184322 0.487359 0.339474 0.0255462 0.997952 -0.0586382 255 255 255 255 
0.152842 0.510752 0.36752 0.0539637 0.998234 -0.0248396 255 255 255 255 
0.171867 0.497014 0.355007 0.0620844 0.995703 -0.0687121 255 255 255 255 
0.0992766 0.506778 0.474111 0.0485407 0.963007 0.265069 255 255 255 255 
0.101903 0.495154 0.490104 -0.0699256 0.672675 0.736627 255 255 255 255 
0.115372 0.499762 0.48308 0.162989 0.869637 0.46601 255 255 255 255 
0.098589 0.508244 0.40331 -0.0628261 0.994373 -0.0852897 255 255 255 255 
0.0863292 0.501187 0.422121 -0.107553 0.993591 -0.0347748 255 255 255 255 
0.103654 0.4934 0.429588 -0.0270851 0.998141 -0.0546037 255 255 255 255 
0.0413401 0.486523 0.456411 -0.0797241 0.981013 0.176795 255 255 255 255 
0.0404063 0.513257 0.473166 -0.0450432 0.975049 0.217374 255 255 255 255 
0.0497357 0.496546 0.472066 -0.106931 0.975988 0.189771 255 255 255 255 
0.494817 0.507417 -0.0253963 0.574786 0.77271 -0.269333 255 255 255 255 
0.468755 0.496375 -0.0220267 0.142417 0.970246 -0.195806 255 255 255 255 
0.495627 0.511496 -0.00616764 0.262971 0.963122 0.0569384 255 255 255 255 
0.486205 0.494213 -0.0886896 0.517816 0.855463 -0.00699745 255 255 255 255 
0.469089 0.497175 -0.065442 0.220865 0.972969 0.0674564 255 255 255 255 
0.473389 0.493445 -0.0843432 0.275573 0.951926 0.133777 255 255 255 255 
0.41937 0.487761 -0.0236549 0.0128952 0.998259 -0.0575525 255 255 255 255 
0.41177 0.487052 -0.0231668 0.00392684 0.999321 -0.0366378 255 255 255 255 
0.435346 0.49689 -0.0146867 -0.0278299 0.99823 -0.052564 255 255 255 255 
