ply
format ascii 1.0
comment VCGLIB generated
element vertex 637
property float x
property float y
property float z
property float nx
property float ny
property float nz
property uchar red
property uchar green
property uchar blue
property uchar alpha
element face 0
property list uchar int vertex_indices
end_header
-0.761929 1.1237 0.766278 0.039268 0.842647 0.537033 255 255 255 255 
-0.887691 1.03535 0.911833 -0.155928 0.849131 0.504642 255 255 255 255 
-0.897752 1.00363 0.993137 0.0845551 0.902043 0.423285 255 255 255 255 
-0.863452 1.01565 0.990396 0.0499412 0.915826 0.398457 255 255 255 255 
-0.464125 -1.36614 0.449986 -0.0733612 -0.771016 0.632576 255 255 255 255 
-0.402795 -1.35714 0.448768 0.0381849 -0.832141 0.553248 255 255 255 255 
-0.430618 -1.4073 0.31979 0.130494 -0.833258 0.537263 255 255 255 255 
-0.31371 -1.4553 0.275227 -0.221464 -0.78834 0.573998 255 255 255 255 
-0.185221 -1.48024 0.241217 0.0838348 -0.860661 0.502229 255 255 255 255 
-0.180943 -1.42069 0.301495 -0.11568 -0.80658 0.579695 255 255 255 255 
-0.130338 -1.00755 0.993289 -0.125912 -0.919484 0.372418 255 255 255 255 
-0.0823684 -1.01684 0.93881 -0.1137 -0.8494 0.515356 255 255 255 255 
-0.270112 -1.06299 0.929094 -0.12138 -0.858521 0.498205 255 255 255 255 
-0.22942 -1.09319 0.821931 0.0935246 -0.868158 0.487397 255 255 255 255 
-0.0320506 -1.1911 0.7013 0.0779533 -0.914463 0.39709 255 255 255 255 
0.03619 -1.14332 0.72824 -0.0530248 -0.938203 0.341999 255 255 255 255 
0.613251 -1.04192 0.962397 -0.00224554 -0.842616 0.53851 255 255 255 255 
0.615918 -1.11739 0.829379 0.0113426 -0.838739 0.544416 255 255 255 255 
0.463137 -0.986254 1.02376 0.00181214 -0.84878 0.528744 255 255 255 255 
0.419477 -1.03003 0.969576 0.0685503 -0.849238 0.523541 255 255 255 255 
0.506553 -1.13281 0.778166 -0.0481863 -0.847404 0.528757 255 255 255 255 
0.587313 -1.17658 0.721382 0.0302176 -0.829104 0.558277 255 255 255 255 
-1.40919 -0.312927 -0.445061 -0.809299 -0.581018 0.086336 255 255 255 255 
-1.45626 -0.228609 -0.331883 -0.833636 -0.546932 -0.0769124 255 255 255 255 
-1.33339 -0.412752 -0.492937 -0.864863 -0.492918 0.0950955 255 255 255 255 
-1.36329 -0.437937 -0.426282 -0.853935 -0.520238 0.0121407 255 255 255 255 
-1.39945 -0.305212 -0.191924 -0.780135 -0.625563 -0.00774095 255 255 255 255 
-1.44745 -0.25295 -0.157178 -0.823888 -0.544167 0.158401 255 255 255 255 
-1.00767 -0.925682 -0.295832 -0.799898 -0.598496 -0.0443305 255 255 255 255 
-1.08468 -0.841992 -0.258741 -0.921433 -0.386809 -0.0366087 255 255 255 255 
-0.966806 -0.997204 -0.180916 -0.837304 -0.5424 -0.0687314 255 255 255 255 
-1.00309 -0.929997 -0.0385078 -0.835603 -0.543771 0.0779774 255 255 255 255 
-1.15733 -0.781437 0.000447804 -0.799174 -0.598355 -0.0573821 255 255 255 255 
-1.14793 -0.716674 -0.0216402 -0.899466 -0.430523 -0.0749055 255 255 255 255 
-0.994514 -1.02473 0.442911 -0.889275 -0.444464 0.107898 255 255 255 255 
-1.01471 -0.94751 0.459941 -0.819031 -0.571732 -0.0480687 255 255 255 255 
-1.02572 -0.932163 0.586686 -0.864795 -0.501534 -0.0243502 255 255 255 255 
-1.10672 -0.839839 0.652555 -0.866695 -0.4968 0.0450435 255 255 255 255 
-1.16834 -0.708794 0.598069 -0.802656 -0.587454 -0.103156 255 255 255 255 
-1.13642 -0.773113 0.535384 -0.83617 -0.548217 0.0166441 255 255 255 255 
-0.926732 0.612262 1.03064 -0.522761 -0.0363228 0.851705 255 255 255 255 
-0.849632 0.626601 1.11367 -0.579541 -0.0583979 0.812848 255 255 255 255 
-1.00132 0.464372 0.977087 -0.521572 0.0853641 0.848926 255 255 255 255 
-0.983781 0.425264 1.03177 -0.473881 0.0161332 0.880441 255 255 255 255 
-0.730003 0.493021 1.12704 -0.495995 0.00557639 0.868307 255 255 255 255 
-0.689955 0.564749 1.18753 -0.488858 -0.204388 0.848082 255 255 255 255 
-1.02192 -0.1757 0.975626 -0.6445 0.00701913 0.764572 255 255 255 255 
-0.960332 -0.0635642 1.0102 -0.468348 -0.111164 0.876523 255 255 255 255 
-0.929484 -0.258172 1.05495 -0.489527 -0.0916032 0.867163 255 255 255 255 
-0.837136 -0.243775 1.0871 -0.55329 -0.136635 0.821706 255 255 255 255 
-0.69683 -0.0227024 1.14905 -0.569581 -0.0464015 0.820624 255 255 255 255 
-0.762569 -0.00747552 1.15443 -0.481271 0.0274811 0.876141 255 255 255 255 
-0.464918 -0.477934 1.35587 -0.555057 0.0268202 0.83138 255 255 255 255 
-0.462478 -0.387054 1.34556 -0.468164 0.0479815 0.882338 255 255 255 255 
-0.31414 -0.407764 1.4125 -0.487905 -0.0350905 0.872191 255 255 255 255 
-0.269618 -0.299933 1.45393 -0.454933 0.01895 0.890324 255 255 255 255 
-0.242822 -0.167168 1.43867 -0.522427 -0.0569993 0.850777 255 255 255 255 
-0.332668 -0.207336 1.43577 -0.553244 0.031829 0.832411 255 255 255 255 
0.865832 0.624199 1.07548 0.534247 0.0679182 0.842596 255 255 255 255 
0.941552 0.609772 1.05607 0.515026 0.0548256 0.855419 255 255 255 255 
0.724555 0.579468 1.18165 0.54018 0.0549166 0.839756 255 255 255 255 
0.739622 0.534284 1.15175 0.538691 0.0299181 0.841972 255 255 255 255 
0.968481 0.445242 1.05356 0.487658 -0.0380151 0.872207 255 255 255 255 
1.03415 0.455335 0.97401 0.506121 0.153042 0.848776 255 255 255 255 
0.428608 0.0764777 1.38197 0.586511 -0.16838 0.792246 255 255 255 255 
0.523311 0.121528 1.28544 0.579551 0.0786075 0.811136 255 255 255 255 
0.42017 -0.0646064 1.38962 0.537079 0.00153513 0.843531 255 255 255 255 
0.488217 -0.138893 1.33162 0.50185 0.144612 0.85278 255 255 255 255 
0.684294 -0.0334103 1.19396 0.592819 -0.0974218 0.799421 255 255 255 255 
0.735079 0.0350217 1.16873 0.508955 -0.067756 0.858122 255 255 255 255 
0.706992 -0.593368 1.20154 0.591915 -0.0223752 0.80569 255 255 255 255 
0.777747 -0.522538 1.1314 0.476121 -0.0188916 0.879177 255 255 255 255 
0.832687 -0.642944 1.10923 0.595662 -0.0821539 0.799023 255 255 255 255 
0.963165 -0.567918 1.01796 0.508688 0.0268546 0.860532 255 255 255 255 
1.00939 -0.453768 0.972797 0.514453 -0.0643052 0.855104 255 255 255 255 
0.961232 -0.420155 0.998977 0.542969 0.0279025 0.839289 255 255 255 255 
0.830512 -1.26298 -0.0474941 0.868986 -0.490661 -0.0641517 255 255 255 255 
0.830953 -1.28063 0.0705165 0.772667 -0.626899 0.0999224 255 255 255 255 
0.873684 -1.19364 -0.19515 0.761138 -0.648553 0.00695289 255 255 255 255 
0.882996 -1.17225 -0.142093 0.84858 -0.525806 -0.0586613 255 255 255 255 
0.901978 -1.15505 0.115911 0.863289 -0.504674 -0.00599825 255 255 255 255 
0.866136 -1.1779 0.171401 0.825296 -0.560033 -0.0724567 255 255 255 255 
1.16669 -0.661512 -0.402104 0.828956 -0.559313 0.000629859 255 255 255 255 
1.18058 -0.753295 -0.273033 0.801252 -0.594345 -0.0689101 255 255 255 255 
1.28662 -0.581211 -0.312185 0.820837 -0.567387 0.0655608 255 255 255 255 
1.25191 -0.544986 -0.212494 0.858551 -0.511111 -0.0406972 255 255 255 255 
1.16518 -0.683153 0.0107271 0.856794 -0.515658 -0.00110138 255 255 255 255 
1.12898 -0.726084 -0.00847462 0.832386 -0.552193 0.0470774 255 255 255 255 
1.44645 -0.256208 0.194092 0.74875 -0.66256 0.0196771 255 255 255 255 
1.4011 -0.322046 0.169137 0.862296 -0.480626 0.159516 255 255 255 255 
1.45052 -0.265541 0.343387 0.875037 -0.478141 0.0754414 255 255 255 255 
1.42189 -0.284846 0.429953 0.85653 -0.51384 0.0482123 255 255 255 255 
1.35704 -0.425768 0.483108 0.855439 -0.517888 -0.00389486 255 255 255 255 
1.37541 -0.447374 0.37857 0.815437 -0.57884 0.00253623 255 255 255 255 
-0.43211 -1.42839 -0.28766 0.145536 -0.83411 -0.532053 255 255 255 255 
-0.310472 -1.44504 -0.261836 0.0844715 -0.915081 -0.394324 255 255 255 255 
-0.463452 -1.37149 -0.452679 0.0358571 -0.88327 -0.467492 255 255 255 255 
-0.419693 -1.32238 -0.432639 -0.0826064 -0.918397 -0.38694 255 255 255 255 
-0.174903 -1.43551 -0.301182 0.0391722 -0.871399 -0.489008 255 255 255 255 
-0.193023 -1.45103 -0.243721 -0.0454582 -0.843614 -0.535022 255 255 255 255 
-0.280064 -1.01835 -0.933829 0.000934331 -0.8292 -0.558951 255 255 255 255 
-0.255142 -1.07151 -0.824346 0.0170319 -0.79694 -0.603818 255 255 255 255 
-0.153995 -0.983318 -1.00832 -0.0389168 -0.882727 -0.468271 255 255 255 255 
-0.0579347 -1.04229 -0.95122 -0.0100897 -0.918129 -0.396154 255 255 255 255 
-0.00272187 -1.14266 -0.7623 0.0101266 -0.795978 -0.605242 255 255 255 255 
-0.043171 -1.19351 -0.744447 0.124831 -0.774354 -0.620317 255 255 255 255 
0.477257 -0.967978 -0.99429 -0.02204 -0.905261 -0.424283 255 255 255 255 
0.461396 -1.0005 -0.939029 -0.0258918 -0.758977 -0.650603 255 255 255 255 
0.602538 -1.0494 -0.918593 -0.030549 -0.865357 -0.500224 255 255 255 255 
0.611545 -1.07401 -0.820602 -0.020214 -0.892302 -0.450986 255 255 255 255 
0.564758 -1.17359 -0.744337 -0.0346708 -0.895169 -0.444376 255 255 255 255 
0.536838 -1.13968 -0.743221 -0.0140566 -0.850675 -0.525504 255 255 255 255 
-0.846099 0.632417 -1.09696 -0.515422 -0.121744 -0.848245 255 255 255 255 
-0.954051 0.58475 -1.04038 -0.498769 0.0212601 -0.866474 255 255 255 255 
-0.722704 0.568097 -1.17777 -0.626862 0.0291386 -0.778586 255 255 255 255 
-0.748324 0.500061 -1.15461 -0.605291 0.0782705 -0.792147 255 255 255 255 
-0.949628 0.442994 -1.02126 -0.594515 0.0963447 -0.798291 255 255 255 255 
-1.01317 0.462596 -1.00138 -0.507829 -0.186108 -0.841115 255 255 255 255 
-0.393485 0.0714794 -1.38678 -0.437237 0.121271 -0.891133 255 255 255 255 
-0.489391 0.0890063 -1.28634 -0.509504 0.0123868 -0.860379 255 255 255 255 
-0.385057 -0.055265 -1.35815 -0.515778 -0.0903311 -0.851947 255 255 255 255 
-0.490872 -0.138503 -1.32895 -0.383083 0.114267 -0.916619 255 255 255 255 
-0.715765 -0.0237748 -1.17968 -0.465859 0.0787675 -0.881346 255 255 255 255 
-0.690185 0.0336105 -1.19796 -0.534689 0.064985 -0.842547 255 255 255 255 
-0.717107 -0.602799 -1.17696 -0.580866 -0.0577196 -0.81195 255 255 255 255 
-0.767771 -0.528727 -1.15124 -0.469754 -0.0101764 -0.882739 255 255 255 255 
-0.830039 -0.629476 -1.0712 -0.525897 -0.0439375 -0.849412 255 255 255 255 
-0.929612 -0.600694 -1.0377 -0.654112 -0.071007 -0.753057 255 255 255 255 
-0.998458 -0.483503 -1.00823 -0.615331 0.0116989 -0.788182 255 255 255 255 
-0.983726 -0.418023 -1.0109 -0.619012 0.0720737 -0.782067 255 255 255 255 
-0.819628 1.28762 -0.0693996 -0.869512 0.490914 -0.0543338 255 255 255 255 
-0.820339 1.28761 0.0803232 -0.754768 0.653537 0.0566932 255 255 255 255 
-0.875149 1.195 -0.200012 -0.80412 0.589144 0.0793799 255 255 255 255 
-0.88925 1.15335 -0.143767 -0.824722 0.562493 0.0586202 255 255 255 255 
-0.931423 1.13857 0.117555 -0.805728 0.589804 -0.0541649 255 255 255 255 
-0.901011 1.18367 0.172126 -0.845312 0.534265 -0.00283205 255 255 255 255 
-1.18488 0.712131 -0.393257 -0.774595 0.621102 -0.11931 255 255 255 255 
-1.15523 0.729671 -0.307438 -0.863242 0.504582 -0.014512 255 255 255 255 
-1.27425 0.544087 -0.356536 -0.798445 0.601944 -0.0122268 255 255 255 255 
-1.25177 0.538922 -0.206723 -0.832124 0.549743 -0.0731594 255 255 255 255 
-1.22062 0.688402 -0.0145464 -0.840311 0.525245 -0.134148 255 255 255 255 
-1.15235 0.739712 -0.0456828 -0.867289 0.492633 0.0715724 255 255 255 255 
-1.4738 0.26145 0.184853 -0.738319 0.66718 -0.0987674 255 255 255 255 
-1.40803 0.326497 0.174607 -0.875759 0.469705 -0.111462 255 255 255 255 
-1.46473 0.242218 0.313106 -0.824426 0.545474 0.150932 255 255 255 255 
-1.40179 0.321129 0.43418 -0.903239 0.400605 0.153864 255 255 255 255 
-1.34273 0.440912 0.453446 -0.8493 0.526915 0.0324002 255 255 255 255 
-1.32311 0.417533 0.405463 -0.847525 0.480497 0.225441 255 255 255 255 
0.844633 -0.640639 -1.0715 0.61519 -0.148568 -0.774254 255 255 255 255 
0.952139 -0.586881 -1.0323 0.476814 -0.188789 -0.858491 255 255 255 255 
0.719105 -0.603469 -1.16202 0.563657 0.00712361 -0.825978 255 255 255 255 
0.735571 -0.506556 -1.14834 0.645513 0.0314477 -0.763101 255 255 255 255 
0.950963 -0.444718 -1.04826 0.504855 -0.154976 -0.849178 255 255 255 255 
1.04673 -0.491847 -0.997677 0.44982 0.0337326 -0.892482 255 255 255 255 
0.417361 -0.0959678 -1.36391 0.601356 0.015855 -0.798824 255 255 255 255 
0.503684 -0.134974 -1.31487 0.538679 -0.0228216 -0.842202 255 255 255 255 
0.401174 0.0800237 -1.36956 0.539727 0.0283053 -0.841364 255 255 255 255 
0.523411 0.108009 -1.29166 0.585083 -0.0914341 -0.805803 255 255 255 255 
0.724668 0.0512943 -1.208 0.394041 -0.0622089 -0.916985 255 255 255 255 
0.709214 -0.0257402 -1.16181 0.567742 -0.0420624 -0.822131 255 255 255 255 
0.742074 0.558415 -1.16674 0.564773 -0.129337 -0.815048 255 255 255 255 
0.766633 0.542384 -1.14867 0.551716 -0.0246914 -0.833667 255 255 255 255 
0.843232 0.623833 -1.11584 0.52866 0.0676195 -0.846136 255 255 255 255 
0.965669 0.576542 -1.0242 0.650137 -0.00529003 -0.759798 255 255 255 255 
1.02778 0.455473 -0.969234 0.65595 -0.0394651 -0.753772 255 255 255 255 
0.950905 0.456195 -1.00802 0.570102 -0.0425416 -0.820472 255 255 255 255 
0.45502 1.40052 -0.328428 -0.0720213 0.763728 -0.641508 255 255 255 255 
0.341739 1.48492 -0.246922 0.0145545 0.907001 -0.420876 255 255 255 255 
0.448694 1.37039 -0.416362 -0.117261 0.895204 -0.429953 255 255 255 255 
0.379666 1.36106 -0.453532 -0.0579732 0.888043 -0.45609 255 255 255 255 
0.177456 1.43228 -0.308685 0.0675261 0.819692 -0.568811 255 255 255 255 
0.164619 1.4748 -0.246368 0.00145651 0.812784 -0.582563 255 255 255 255 
0.293704 1.02892 -0.921149 0.0526363 0.800835 -0.596567 255 255 255 255 
0.250424 1.0828 -0.859818 -0.0838164 0.911461 -0.402759 255 255 255 255 
0.180045 0.986774 -1.0002 0.0557119 0.823856 -0.564054 255 255 255 255 
0.0697872 1.01458 -0.975012 0.0362325 0.910242 -0.412489 255 255 255 255 
-0.00165546 1.12587 -0.779546 0.0653292 0.851711 -0.519924 255 255 255 255 
0.0268847 1.19586 -0.700393 -0.0493353 0.887391 -0.458369 255 255 255 255 
-0.474279 0.979791 -1.01897 -0.0304441 0.897493 -0.439977 255 255 255 255 
-0.458015 1.00737 -0.94175 0.0961829 0.830718 -0.548322 255 255 255 255 
-0.599904 1.05069 -0.951949 -0.00408355 0.837634 -0.546217 255 255 255 255 
-0.656939 1.11343 -0.831387 0.0215962 0.90705 -0.420469 255 255 255 255 
-0.601831 1.18171 -0.704541 0.148533 0.786618 -0.599307 255 255 255 255 
-0.540478 1.16433 -0.736485 -0.0641118 0.887185 -0.456938 255 255 255 255 
1.49081 0.237196 0.326103 0.839747 0.535301 0.0909873 255 255 255 255 
1.4246 0.316155 0.422817 0.862165 0.503701 0.0543855 255 255 255 255 
1.43925 0.228215 0.181541 0.881347 0.465664 0.0798995 255 255 255 255 
1.40042 0.339755 0.194982 0.903381 0.428783 -0.00686111 255 255 255 255 
1.35979 0.410021 0.379008 0.815459 0.551238 -0.17653 255 255 255 255 
1.36831 0.42551 0.494778 0.901389 0.419466 0.107455 255 255 255 255 
1.27702 0.53585 -0.310728 0.806121 0.578408 0.124953 255 255 255 255 
1.26376 0.536261 -0.233998 0.805217 0.576257 -0.139835 255 255 255 255 
1.21125 0.693832 -0.372913 0.911323 0.411645 -0.00629289 255 255 255 255 
1.14232 0.777505 -0.305527 0.90343 0.428024 -0.0246966 255 255 255 255 
1.15993 0.762185 -0.0145232 0.893523 0.435555 0.109124 255 255 255 255 
1.1882 0.68798 -0.0120593 0.776893 0.625497 0.0720505 255 255 255 255 
0.907432 1.21351 -0.175535 0.879394 0.468389 -0.0853135 255 255 255 255 
0.912778 1.17634 -0.150598 0.884108 0.467119 0.0123689 255 255 255 255 
0.827503 1.29695 -0.0652343 0.888998 0.457667 -0.01495 255 255 255 255 
0.834393 1.24649 0.0749058 0.825218 0.554448 -0.107716 255 255 255 255 
0.885277 1.16978 0.178175 0.903252 0.428566 -0.0216245 255 255 255 255 
0.921689 1.1703 0.151648 0.912158 0.403124 -0.0738779 255 255 255 255 
0.637937 1.10765 0.860682 0.0190942 0.850496 0.525635 255 255 255 255 
0.617404 1.05736 0.942792 0.0775502 0.803245 0.590579 255 255 255 255 
0.605669 1.15195 0.726103 0.00607244 0.861711 0.507363 255 255 255 255 
0.54307 1.16879 0.734666 0.0978091 0.821379 0.561934 255 255 255 255 
0.452223 1.01839 0.971114 0.0399307 0.761276 0.647197 255 255 255 255 
0.464639 0.985535 1.01227 0.147617 0.819453 0.55381 255 255 255 255 
0.0562948 1.36569 0.386165 0.00353562 0.885766 0.464119 255 255 255 255 
0.113091 1.28816 0.492044 -0.0199492 0.849445 0.5273 255 255 255 255 
-0.0673433 1.37397 0.410738 -0.00963069 0.854172 0.519901 255 255 255 255 
-0.107499 1.30959 0.511454 0.0122541 0.858152 0.51325 255 255 255 255 
-0.018484 1.16861 0.691006 -0.135948 0.852315 0.505053 255 255 255 255 
0.0124183 1.20062 0.725743 -0.112165 0.856979 0.502997 255 255 255 255 
-0.562522 1.18798 0.705051 -0.0811748 0.821288 0.56471 255 255 255 255 
-0.542399 1.16695 0.73345 -0.157137 0.888226 0.431698 255 255 255 255 
-0.642578 1.08181 0.85763 -0.0217885 0.872346 0.488403 255 255 255 255 
-0.610627 1.05655 0.932136 -0.0798514 0.815188 0.573666 255 255 255 255 
-0.482837 1.00516 1.04094 0.0331379 0.8533 0.520366 255 255 255 255 
-0.467823 1.01449 0.937861 0.0209609 0.852428 0.522425 255 255 255 255 
0.133712 -1.44151 0.229382 0.016787 -0.853053 0.521554 255 255 255 255 
0.222845 -1.50365 0.186131 -0.0178704 -0.850255 0.526068 255 255 255 255 
-0.00407885 -1.46811 0.242924 -0.0570012 -0.832963 0.550384 255 255 255 255 
0.0241461 -1.50467 0.170351 -0.172965 -0.90527 0.388034 255 255 255 255 
0.227698 -1.5738 0.0690728 0.060732 -0.897541 0.436729 255 255 255 255 
0.257685 -1.58756 0.0717789 0.100399 -0.842213 0.529714 255 255 255 255 
-0.674468 -1.17986 0.734869 0.0150003 -0.849358 0.527603 255 255 255 255 
-0.556361 -1.17337 0.662971 0.0581393 -0.847049 0.528326 255 255 255 255 
-0.806748 -1.16552 0.750529 -0.212998 -0.867005 0.450483 255 255 255 255 
-0.795052 -1.19213 0.708548 -0.0753703 -0.858596 0.507082 255 255 255 255 
-0.577142 -1.25208 0.543991 -0.0919919 -0.830529 0.549326 255 255 255 255 
-0.501298 -1.28303 0.555282 -0.0702171 -0.847078 0.52681 255 255 255 255 
-0.499929 -1.44738 0.246954 -0.0406986 -0.882116 0.46927 255 255 255 255 
-0.364906 -1.47535 0.209646 -0.0118187 -0.909408 0.415737 255 255 255 255 
-0.621068 -1.47507 0.25992 0.0705075 -0.829827 0.553548 255 255 255 255 
-0.586228 -1.50797 0.207947 0.256198 -0.808562 0.529707 255 255 255 255 
-0.396813 -1.60018 0.0837512 0.0278193 -0.890484 0.454164 255 255 255 255 
-0.33302 -1.5733 0.0432262 0.150743 -0.896063 0.41755 255 255 255 255 
0.336266 -1.30996 0.469385 0.0476529 -0.922124 0.383948 255 255 255 255 
0.380772 -1.38938 0.365558 0.0113583 -0.874632 0.484655 255 255 255 255 
0.154094 -1.26788 0.585682 -0.010523 -0.867101 0.498022 255 255 255 255 
0.114834 -1.26658 0.555747 -0.0668506 -0.895738 0.439528 255 255 255 255 
0.180138 -1.3855 0.358642 0.0891127 -0.847784 0.522801 255 255 255 255 
0.253168 -1.44634 0.30296 -0.045027 -0.82312 0.56608 255 255 255 255 
0.0662855 -0.826268 1.25789 -0.0270849 -0.910026 0.413666 255 255 255 255 
0.0915801 -0.914584 1.19574 -0.0139436 -0.766774 0.641766 255 255 255 255 
-0.143758 -0.759512 1.39946 -0.144428 -0.801724 0.579982 255 255 255 255 
-0.203487 -0.757361 1.34826 -0.09222 -0.802221 0.589862 255 255 255 255 
-0.14592 -0.928074 1.16745 -0.149698 -0.903228 0.402207 255 255 255 255 
-0.0134235 -0.957867 1.08503 -0.0396859 -0.786461 0.616364 255 255 255 255 
-0.464537 -1.04662 0.978727 -0.0317375 -0.832614 0.552943 255 255 255 255 
-0.397753 -1.10285 0.889504 0.0125818 -0.863041 0.504978 255 255 255 255 
-0.638342 -0.923769 1.07728 -0.0025589 -0.858305 0.513134 255 255 255 255 
-0.724467 -0.957545 1.03539 -0.0899534 -0.89264 0.441704 255 255 255 255 
-0.637398 -1.06741 0.828502 0.0789257 -0.880898 0.46668 255 255 255 255 
-0.523687 -1.13855 0.815721 -0.029714 -0.852303 0.522203 255 255 255 255 
0.690534 -1.39819 0.365308 0.171204 -0.853239 0.492617 255 255 255 255 
0.629894 -1.4676 0.267677 -0.0454869 -0.857634 0.512246 255 255 255 255 
0.614685 -1.29702 0.527976 0.0805964 -0.72327 0.685846 255 255 255 255 
0.523003 -1.27429 0.616176 0.0279063 -0.846527 0.531615 255 255 255 255 
0.48345 -1.30376 0.491161 0.0527407 -0.893817 0.44532 255 255 255 255 
0.552321 -1.38664 0.345768 0.135654 -0.891891 0.431426 255 255 255 255 
0.884069 -1.08984 0.844077 0.118077 -0.868618 0.481207 255 255 255 255 
0.849148 -1.15821 0.798829 -0.0438993 -0.80196 0.595763 255 255 255 255 
0.760947 -0.988511 1.06296 0.0125019 -0.780315 0.625261 255 255 255 255 
0.723623 -0.918052 1.11236 0.102772 -0.806218 0.582624 255 255 255 255 
0.68724 -0.992906 0.956289 -0.0486592 -0.777394 0.627129 255 255 255 255 
0.71787 -1.07804 0.852681 0.112315 -0.858354 0.500613 255 255 255 255 
0.347407 -0.91267 1.184 -0.0515101 -0.785592 0.616597 255 255 255 255 
0.369182 -0.936241 1.07894 0.0469958 -0.817442 0.57409 255 255 255 255 
0.264868 -0.776865 1.35584 -0.0491128 -0.833176 0.550823 255 255 255 255 
0.209946 -0.725975 1.37559 0.0809181 -0.895396 0.437856 255 255 255 255 
0.154659 -0.815366 1.25992 -0.0795959 -0.887175 0.454517 255 255 255 255 
0.22023 -0.904315 1.17408 -0.0926044 -0.839244 0.535811 255 255 255 255 
-1.58697 -0.04032 0.195531 -0.941765 -0.314997 0.117706 255 255 255 255 
-1.5931 -0.0756226 0.311099 -0.924174 -0.375227 0.0714675 255 255 255 255 
-1.49873 -0.183907 -0.0182673 -0.907987 -0.408822 0.0917812 255 255 255 255 
-1.44849 -0.268607 -0.0146535 -0.768771 -0.638543 -0.0354171 255 255 255 255 
-1.43813 -0.252416 0.12142 -0.816523 -0.576719 0.0261638 255 255 255 255 
-1.49513 -0.160364 0.249468 -0.922296 -0.35455 -0.153835 255 255 255 255 
-1.58407 -0.0817156 -0.420187 -0.77881 -0.627073 -0.0153127 255 255 255 255 
-1.58319 -0.061649 -0.313493 -0.854245 -0.501421 0.137265 255 255 255 255 
-1.5238 -0.213613 -0.63496 -0.816109 -0.570038 -0.0949918 255 255 255 255 
-1.43853 -0.264058 -0.641307 -0.923754 -0.381181 -0.0371309 255 255 255 255 
-1.47154 -0.23328 -0.48607 -0.838015 -0.545461 -0.0142539 255 255 255 255 
-1.4847 -0.21392 -0.395874 -0.772893 -0.63029 0.0732893 255 255 255 255 
-1.26589 -0.554013 -0.594379 -0.894302 -0.431908 0.11696 255 255 255 255 
-1.2442 -0.575958 -0.518104 -0.872292 -0.479535 0.0956758 255 255 255 255 
-1.17925 -0.672166 -0.782646 -0.817538 -0.573934 0.0472496 255 255 255 255 
-1.13225 -0.730042 -0.83318 -0.772192 -0.635374 0.00435404 255 255 255 255 
-1.15882 -0.764763 -0.694778 -0.80324 -0.589634 -0.0844865 255 255 255 255 
-1.21958 -0.67239 -0.586865 -0.790609 -0.610246 0.050371 255 255 255 255 
-1.38908 -0.353952 0.19472 -0.881822 -0.470101 0.0373542 255 255 255 255 
-1.42652 -0.288737 0.272968 -0.892972 -0.448195 0.0415058 255 255 255 255 
-1.30242 -0.578201 0.124164 -0.876308 -0.463465 -0.131469 255 255 255 255 
-1.23955 -0.566512 0.152423 -0.838264 -0.536329 -0.0983148 255 255 255 255 
-1.31826 -0.441897 0.341276 -0.901002 -0.430983 -0.0494854 255 255 255 255 
-1.40649 -0.38177 0.375874 -0.793704 -0.590046 -0.147917 255 255 255 255 
-1.09046 -0.833579 -0.642814 -0.887051 -0.460394 -0.0343276 255 255 255 255 
-1.13049 -0.78795 -0.543517 -0.818049 -0.574391 -0.0295004 255 255 255 255 
-0.989473 -1.04498 -0.720221 -0.872153 -0.488559 -0.0256786 255 255 255 255 
-0.943235 -1.11828 -0.630203 -0.783097 -0.604333 -0.14677 255 255 255 255 
-1.01973 -0.946915 -0.459578 -0.821493 -0.570056 -0.0136023 255 255 255 255 
-1.08887 -0.875534 -0.381152 -0.845759 -0.533375 0.0142394 255 255 255 255 
-0.927347 -1.17411 -0.117104 -0.866046 -0.493755 0.0785546 255 255 255 255 
-0.911992 -1.0753 -0.0495334 -0.87632 -0.472818 -0.0922324 255 255 255 255 
-0.782284 -1.36145 -0.203482 -0.861726 -0.49718 -0.101192 255 255 255 255 
-0.745988 -1.39749 -0.122049 -0.87366 -0.476147 0.100012 255 255 255 255 
-0.810026 -1.27155 0.0726248 -0.846394 -0.532332 -0.0154814 255 255 255 255 
-0.878032 -1.19376 0.0858651 -0.894702 -0.438079 -0.087152 255 255 255 255 
-1.34566 -0.441084 0.483864 -0.825426 -0.564035 -0.0231626 255 255 255 255 
-1.40739 -0.365994 0.524973 -0.885307 -0.461983 0.0529432 255 255 255 255 
-1.25247 -0.569148 0.551428 -0.889676 -0.450095 0.0767587 255 255 255 255 
-1.25696 -0.531886 0.615999 -0.839381 -0.543099 -0.0219981 255 255 255 255 
-1.41057 -0.343603 0.666434 -0.910166 -0.391355 0.135791 255 255 255 255 
-1.43178 -0.261566 0.636547 -0.859221 -0.511592 -0.0035373 255 255 255 255 
-0.840173 -1.25011 0.195565 -0.847009 -0.52995 -0.0415764 255 255 255 255 
-0.904736 -1.19652 0.227574 -0.910851 -0.403006 -0.0890919 255 255 255 255 
-0.739805 -1.39251 0.221042 -0.803292 -0.595007 -0.0262531 255 255 255 255 
-0.798869 -1.34382 0.304594 -0.736855 -0.675603 0.0245978 255 255 255 255 
-0.911531 -1.16803 0.363009 -0.865759 -0.494074 0.0796997 255 255 255 255 
-0.931937 -1.08361 0.354717 -0.899437 -0.437049 -0.000605946 255 255 255 255 
-1.03146 -0.98379 0.689931 -0.828509 -0.558965 0.0336144 255 255 255 255 
-1.06224 -0.89345 0.701306 -0.842078 -0.539238 0.0112386 255 255 255 255 
-0.934056 -1.08153 0.7155 -0.89964 -0.423162 -0.107614 255 255 255 255 
-0.961664 -1.08033 0.770456 -0.897644 -0.440226 -0.0209033 255 255 255 255 
-1.11271 -0.858947 0.881721 -0.857628 -0.514067 -0.0144752 255 255 255 255 
-1.13073 -0.763313 0.850564 -0.880835 -0.47153 -0.0422976 255 255 255 255 
-0.363332 0.699672 1.40514 -0.578482 0.121399 0.806611 255 255 255 255 
-0.284604 0.635168 1.46279 -0.562022 0.0888665 0.822335 255 255 255 255 
-0.538239 0.588556 1.29323 -0.4825 -0.0499538 0.87447 255 255 255 255 
-0.585804 0.556026 1.261 -0.624204 -0.0862215 0.776489 255 255 255 255 
-0.476939 0.490427 1.34756 -0.685217 0.012994 0.728223 255 255 255 255 
-0.354745 0.542001 1.39818 -0.535161 -0.103568 0.838377 255 255 255 255 
-0.838791 0.870296 1.07048 -0.299031 0.100539 0.948932 255 255 255 255 
-0.778313 0.8352 1.14683 -0.545029 0.0356609 0.837659 255 255 255 255 
-1.05293 0.799904 0.993237 -0.515566 0.0709092 0.853911 255 255 255 255 
-1.09564 0.715638 0.92061 -0.583271 -0.0905667 0.807213 255 255 255 255 
-0.982733 0.690884 1.00446 -0.550219 0.0534688 0.833307 255 255 255 255 
-0.870968 0.703525 1.08761 -0.566252 0.0215779 0.823949 255 255 255 255 
-1.13294 0.346133 0.906384 -0.419843 0.0254121 0.907241 255 255 255 255 
-1.07804 0.346 0.946826 -0.580768 -0.00484081 0.814054 255 255 255 255 
-1.37467 0.309842 0.795435 -0.706068 0.0122121 0.708038 255 255 255 255 
-1.37964 0.242301 0.726984 -0.632315 0.142892 0.761419 255 255 255 255 
-1.26168 0.168232 0.837222 -0.507254 0.0221212 0.861513 255 255 255 255 
-1.2014 0.1982 0.881496 -0.504567 0.0858942 0.859089 255 255 255 255 
-0.478326 0.344088 1.31209 -0.53314 0.0051391 0.846011 255 255 255 255 
-0.374822 0.393852 1.36859 -0.543139 -0.00619903 0.83962 255 255 255 255 
-0.603614 0.178511 1.26126 -0.589355 -0.0805433 0.803849 255 255 255 255 
-0.549296 0.119612 1.27087 -0.507303 -0.0215763 0.861497 255 255 255 255 
-0.37531 0.150526 1.41967 -0.55145 -0.0480508 0.832823 255 255 255 255 
-0.278445 0.298484 1.45603 -0.637614 -0.0374022 0.769448 255 255 255 255 
-1.2798 0.0353106 0.836524 -0.581514 0.0164641 0.81337 255 255 255 255 
-1.16468 0.087526 0.901017 -0.483923 -0.00818344 0.875072 255 255 255 255 
-1.39673 -0.156394 0.754716 -0.54695 -0.110701 0.829814 255 255 255 255 
-1.36526 -0.203682 0.759503 -0.508169 -0.020662 0.86101 255 255 255 255 
-1.18078 -0.114174 0.900351 -0.345201 0.110423 0.93201 255 255 255 255 
-1.08423 -0.0413484 0.939559 -0.583732 0.0374211 0.811084 255 255 255 255 
-0.973881 -0.448969 1.02169 -0.474182 0.0204841 0.880188 255 255 255 255 
-0.863958 -0.380456 1.07301 -0.466795 0.0914891 0.87962 255 255 255 255 
-1.10915 -0.646575 0.940213 -0.597462 -0.123887 0.792269 255 255 255 255 
-1.02968 -0.723184 0.949173 -0.552558 0.0212291 0.833204 255 255 255 255 
-0.826822 -0.624439 1.07097 -0.438853 0.0834073 0.894679 255 255 255 255 
-0.799582 -0.559619 1.15774 -0.605961 0.0766124 0.791797 255 255 255 255 
-0.247356 0.143984 1.44806 -0.472617 -0.0667762 0.878734 255 255 255 255 
-0.171825 0.265051 1.51571 -0.477961 0.0469218 0.877127 255 255 255 255 
-0.236688 -0.0301033 1.4774 -0.615673 0.00923424 0.787947 255 255 255 255 
-0.195058 -0.0209152 1.50245 -0.565296 -0.0247206 0.824518 255 255 255 255 
-0.0807577 0.22824 1.561 -0.532071 0.0404305 0.845734 255 255 255 255 
-0.0772305 0.268975 1.59872 -0.518689 -0.0560704 0.853122 255 255 255 255 
-0.746049 -0.693479 1.17751 -0.542265 -0.0757101 0.83679 255 255 255 255 
-0.676901 -0.599542 1.19845 -0.456017 0.141844 0.878595 255 255 255 255 
-0.761908 -0.84982 1.15999 -0.398454 -0.120844 0.909192 255 255 255 255 
-0.714049 -0.815163 1.18395 -0.581886 -0.0529847 0.811543 255 255 255 255 
-0.548986 -0.616232 1.25009 -0.551436 -0.0653981 0.83165 255 255 255 255 
-0.572331 -0.52795 1.26825 -0.573107 0.0375586 0.818619 255 255 255 255 
-0.230911 -0.497274 1.44234 -0.593122 0.0110897 0.805036 255 255 255 255 
-0.160609 -0.400207 1.51231 -0.622373 0.028262 0.782211 255 255 255 255 
-0.241879 -0.634819 1.4778 -0.563466 -0.0845142 0.821805 255 255 255 255 
-0.193 -0.634641 1.50962 -0.485817 -0.0514583 0.872544 255 255 255 255 
-0.0360521 -0.428627 1.575 -0.367321 -0.015244 0.929969 255 255 255 255 
-0.0806431 -0.319576 1.55225 -0.570166 0.162044 0.80539 255 255 255 255 
1.36183 0.263496 0.757383 0.449953 0.0168001 0.892894 255 255 255 255 
1.40983 0.223606 0.74769 0.550665 -0.0245766 0.834364 255 255 255 255 
1.15868 0.387258 0.884166 0.390872 0.0982485 0.915186 255 255 255 255 
1.09203 0.342538 0.912886 0.584472 -0.0353461 0.810644 255 255 255 255 
1.1768 0.223361 0.905064 0.501794 0.0521355 0.863415 255 255 255 255 
1.25889 0.157671 0.830212 0.509503 -0.122164 0.851753 255 255 255 255 
1.07483 0.784457 0.98003 0.501217 -0.0629136 0.863031 255 255 255 255 
1.11341 0.703375 0.93549 0.551616 0.0425524 0.833012 255 255 255 255 
0.860748 0.859766 1.11011 0.522815 -0.0228461 0.85214 255 255 255 255 
0.799811 0.826491 1.14063 0.511999 0.0685848 0.856244 255 255 255 255 
0.853331 0.743128 1.10133 0.483777 -0.0464713 0.873957 255 255 255 255 
0.983504 0.688275 1.0413 0.624335 -0.0344272 0.780398 255 255 255 255 
0.565815 0.59512 1.25535 0.560852 -0.00840309 0.827873 255 255 255 255 
0.610507 0.562089 1.22418 0.517684 0.194865 0.833085 255 255 255 255 
0.344656 0.692496 1.40388 0.487895 0.0937524 0.867853 255 255 255 255 
0.2867 0.636032 1.42519 0.522909 0.0284167 0.851915 255 255 255 255 
0.352202 0.535019 1.41395 0.414101 -0.136741 0.899901 255 255 255 255 
0.494962 0.478093 1.34 0.543748 -0.0416428 0.838215 255 255 255 255 
1.08982 0.103519 0.932588 0.522339 0.00662732 0.852712 255 255 255 255 
1.22941 0.0599656 0.862724 0.546544 -0.0270799 0.836993 255 255 255 255 
0.899437 0.060143 1.02945 0.592486 -0.0161486 0.805419 255 255 255 255 
0.896984 -0.0615371 1.07543 0.434048 0.0922063 0.896159 255 255 255 255 
1.13852 -0.113796 0.917711 0.477798 -0.0258007 0.878091 255 255 255 255 
1.22806 -0.0704308 0.859787 0.473231 -0.05249 0.879373 255 255 255 255 
0.321421 0.401036 1.45249 0.54078 0.110162 0.833919 255 255 255 255 
0.407939 0.366145 1.35575 0.662345 0.0940328 0.743275 255 255 255 255 
0.117641 0.332643 1.53585 0.543099 0.020043 0.839429 255 255 255 255 
0.113218 0.272588 1.56022 0.541921 0.0734947 0.83721 255 255 255 255 
0.283877 0.170348 1.43488 0.427657 -0.00250531 0.903938 255 255 255 255 
0.430337 0.232541 1.37462 0.505942 0.0152676 0.862432 255 255 255 255 
0.32634 -0.218796 1.44004 0.566584 -0.104851 0.817306 255 255 255 255 
0.380464 -0.235731 1.39161 0.454485 -0.11692 0.883048 255 255 255 255 
0.101418 -0.253616 1.56088 0.549548 0.025381 0.835076 255 255 255 255 
0.0855632 -0.340096 1.58328 0.508164 -0.0594336 0.859207 255 255 255 255 
0.287126 -0.402245 1.43695 0.514619 0.0648299 0.854964 255 255 255 255 
0.387216 -0.382445 1.39086 0.54407 -0.0643575 0.836568 255 255 255 255 
1.18174 -0.225116 0.90801 0.592625 -0.152759 0.790861 255 255 255 255 
1.26553 -0.171773 0.82987 0.51856 0.0998732 0.849188 255 255 255 255 
1.10221 -0.361866 0.942053 0.619933 -0.123043 0.774948 255 255 255 255 
1.14733 -0.379613 0.901056 0.450023 -0.0797931 0.889445 255 255 255 255 
1.36649 -0.303704 0.760076 0.531953 -0.105946 0.84012 255 255 255 255 
1.38096 -0.200745 0.754936 0.495676 0.183659 0.848866 255 255 255 255 
0.381439 -0.541615 1.38942 0.456942 0.119748 0.881399 255 255 255 255 
0.479302 -0.485662 1.31726 0.467149 0.00109497 0.884178 255 255 255 255 
0.31638 -0.631083 1.41548 0.507068 -0.0572336 0.860004 255 255 255 255 
0.335129 -0.679946 1.39848 0.348594 -0.127142 0.92861 255 255 255 255 
0.54515 -0.610034 1.30233 0.480168 -0.118389 0.869151 255 255 255 255 
0.564658 -0.535896 1.27529 0.515869 0.182379 0.837029 255 255 255 255 
0.872831 -0.722562 1.06544 0.720823 0.0465002 0.691557 255 255 255 255 
0.962995 -0.677149 1.01655 0.391417 -0.0488946 0.918913 255 255 255 255 
0.802815 -0.854669 1.14979 0.644158 -0.170325 0.745687 255 255 255 255 
0.850611 -0.851586 1.06525 0.523829 -0.0781874 0.848228 255 255 255 255 
1.05114 -0.779551 0.95625 0.574218 0.0249123 0.818324 255 255 255 255 
1.10522 -0.726954 0.928737 0.534546 -0.0963858 0.839625 255 255 255 255 
0.884398 -1.13446 0.607986 0.876394 -0.481579 0.00387156 255 255 255 255 
0.903882 -1.12838 0.676346 0.823073 -0.567762 0.0140489 255 255 255 255 
0.899492 -1.15457 0.380393 0.871978 -0.483144 0.0789115 255 255 255 255 
0.949686 -1.09827 0.31862 0.831964 -0.547736 0.0884391 255 255 255 255 
0.952009 -1.02505 0.425607 0.888953 -0.418806 -0.185377 255 255 255 255 
0.963983 -1.01423 0.588265 0.880774 -0.473474 0.00772615 255 255 255 255 
0.727959 -1.44594 0.130849 0.847224 -0.512145 -0.141133 255 255 255 255 
0.761777 -1.41908 0.204165 0.804376 -0.594087 0.00635553 255 255 255 255 
0.717863 -1.4478 -0.144558 0.867595 -0.490879 0.079483 255 255 255 255 
0.752993 -1.44429 -0.197855 0.853013 -0.52189 -0.000688916 255 255 255 255 
0.773354 -1.34606 -0.0789736 0.867528 -0.49719 -0.0140294 255 255 255 255 
0.805333 -1.33438 0.0554243 0.883829 -0.46037 0.0831021 255 255 255 255 
0.922347 -1.15679 -0.348094 0.775177 -0.626874 0.0782916 255 255 255 255 
0.927714 -1.14105 -0.301285 0.759825 -0.650102 0.0057275 255 255 255 255 
0.901316 -1.15259 -0.61802 0.840366 -0.522402 -0.144506 255 255 255 255 
0.944768 -1.09432 -0.683029 0.742569 -0.659926 -0.114407 255 255 255 255 
0.99304 -1.06403 -0.558129 0.826793 -0.561415 -0.0350253 255 255 255 255 
0.986622 -1.05285 -0.441876 0.842601 -0.527517 0.108392 255 255 255 255 
1.02728 -0.960966 0.378804 0.827448 -0.558013 -0.0628591 255 255 255 255 
1.02699 -0.929571 0.512889 0.882307 -0.45538 -0.119012 255 255 255 255 
1.10766 -0.835381 0.209193 0.886243 -0.462908 -0.0170436 255 255 255 255 
1.14117 -0.727103 0.248048 0.81507 -0.575059 -0.0704801 255 255 255 255 
1.16962 -0.74586 0.475222 0.844221 -0.508901 -0.168255 255 255 255 255 
1.10277 -0.804909 0.550319 0.849037 -0.527487 0.0298818 255 255 255 255 
1.0598 -0.937102 -0.584287 0.830778 -0.553055 -0.0627598 255 255 255 255 
1.02216 -0.957508 -0.485308 0.829991 -0.557756 0.00490796 255 255 255 255 
1.13529 -0.826835 -0.821581 0.852457 -0.483219 0.199541 255 255 255 255 
1.17014 -0.723958 -0.7876 0.872211 -0.481204 0.0876985 255 255 255 255 
1.12775 -0.724681 -0.528365 0.80389 -0.584033 0.112547 255 255 255 255 
1.13298 -0.823111 -0.444127 0.8441 -0.535509 0.0269356 255 255 255 255 
1.33098 -0.427814 -0.390345 0.829252 -0.557248 -0.0426163 255 255 255 255 
1.34644 -0.420801 -0.275829 0.81513 -0.563077 0.136045 255 255 255 255 
1.44386 -0.299605 -0.634406 0.857257 -0.513942 0.0312045 255 255 255 255 
1.46244 -0.257197 -0.583961 0.878738 -0.477304 -0.00116844 255 255 255 255 
1.43833 -0.243186 -0.330463 0.845356 -0.518481 0.128651 255 255 255 255 
1.44457 -0.313305 -0.261156 0.852785 -0.512221 -0.101918 255 255 255 255 
1.19447 -0.663541 0.586256 0.781619 -0.615834 -0.0990931 255 255 255 255 
1.16921 -0.730451 0.646222 0.826504 -0.543695 -0.145902 255 255 255 255 
1.27356 -0.582047 0.50618 0.859477 -0.511067 0.0104465 255 255 255 255 
1.2437 -0.589196 0.62702 0.876241 -0.475202 0.0799079 255 255 255 255 
1.18494 -0.715479 0.818143 0.872234 -0.48785 -0.0347949 255 255 255 255 
1.14615 -0.749777 0.808787 0.893077 -0.449 0.0285035 255 255 255 255 
1.51207 -0.188045 -0.20974 0.800982 -0.590446 0.0990034 255 255 255 255 
1.45438 -0.265957 -0.111362 0.849862 -0.512045 -0.124678 255 255 255 255 
1.6009 -0.0600684 -0.309958 0.873547 -0.486667 -0.00840235 255 255 255 255 
1.59352 -0.0725504 -0.232327 0.814952 -0.577478 -0.0487097 255 255 255 255 
1.51642 -0.180517 -0.00157695 0.817012 -0.576575 0.00721832 255 255 255 255 
1.45798 -0.257105 -0.00129916 0.864779 -0.497756 0.0663066 255 255 255 255 
1.47534 -0.19078 0.389014 0.842547 -0.538291 -0.0189001 255 255 255 255 
1.46008 -0.228294 0.477225 0.795925 -0.605315 -0.00986981 255 255 255 255 
1.59151 -0.0862298 0.357965 0.836352 -0.546816 -0.0388223 255 255 255 255 
1.59955 -0.0396717 0.428971 0.8642 -0.470785 0.177538 255 255 255 255 
1.47773 -0.20749 0.622744 0.845628 -0.522816 0.107597 255 255 255 255 
1.43648 -0.234638 0.656169 0.889447 -0.422082 0.175303 255 255 255 255 
0.19207 -1.56015 -0.0495724 0.00615368 -0.852191 -0.523195 255 255 255 255 
0.2893 -1.57153 -0.0455509 0.0872065 -0.900518 -0.425983 255 255 255 255 
-0.00620953 -1.51573 -0.186331 0.0665887 -0.809267 -0.583655 255 255 255 255 
-0.0257825 -1.43553 -0.228997 0.278619 -0.824431 -0.492631 255 255 255 255 
0.140931 -1.43779 -0.261178 -0.103692 -0.820957 -0.561496 255 255 255 255 
0.234921 -1.51925 -0.181073 0.118631 -0.851834 -0.510201 255 255 255 255 
-0.427259 -1.59623 -0.0533665 -0.106381 -0.880355 -0.462232 255 255 255 255 
-0.34941 -1.59765 -0.0457476 0.0904183 -0.892396 -0.442102 255 255 255 255 
-0.591365 -1.49335 -0.20435 0.0412855 -0.899749 -0.43445 255 255 255 255 
-0.627618 -1.47473 -0.274523 0.0811217 -0.89294 -0.442806 255 255 255 255 
-0.454247 -1.48549 -0.227876 0.0254269 -0.863032 -0.504509 255 255 255 255 
-0.403635 -1.50618 -0.19441 -0.119404 -0.916475 -0.38186 255 255 255 255 
-0.576306 -1.26515 -0.571846 0.0702334 -0.821119 -0.566419 255 255 255 255 
-0.533647 -1.27869 -0.543274 0.0141409 -0.824834 -0.565198 255 255 255 255 
-0.807762 -1.17941 -0.690373 -0.120823 -0.827735 -0.547957 255 255 255 255 
-0.840472 -1.14349 -0.76205 -0.0214988 -0.870795 -0.491177 255 255 255 255 
-0.655967 -1.17664 -0.773846 -0.0578063 -0.852142 -0.520108 255 255 255 255 
-0.560013 -1.21643 -0.663161 -0.130604 -0.807137 -0.575737 255 255 255 255 
0.176099 -1.39524 -0.3476 -0.103533 -0.767025 -0.63321 255 255 255 255 
0.268847 -1.44083 -0.303149 -0.0320005 -0.899388 -0.435978 255 255 255 255 
0.0783564 -1.24971 -0.533313 0.0437197 -0.858944 -0.510199 255 255 255 255 
0.171296 -1.24198 -0.58494 -0.0114791 -0.829743 -0.558027 255 255 255 255 
0.356627 -1.30507 -0.480196 -0.0309545 -0.828857 -0.558604 255 255 255 255 
0.399761 -1.38372 -0.340997 -0.0773568 -0.869722 -0.487442 255 255 255 255 
-0.635657 -1.08459 -0.858743 -0.0483068 -0.833001 -0.551159 255 255 255 255 
-0.522303 -1.14845 -0.77864 0.00309625 -0.833774 -0.552098 255 255 255 255 
-0.704205 -0.943277 -1.04061 0.11999 -0.876593 -0.466034 255 255 255 255 
-0.656242 -0.948548 -1.08824 -0.0560486 -0.89183 -0.448885 255 255 255 255 
-0.454595 -1.02696 -0.945385 0.0307789 -0.769894 -0.63743 255 255 255 255 
-0.389121 -1.08151 -0.861709 -0.0632708 -0.898717 -0.433941 255 255 255 255 
-0.140903 -0.888468 -1.18557 -0.0227477 -0.878969 -0.476336 255 255 255 255 
-0.0266376 -0.911759 -1.12477 -0.133482 -0.846665 -0.515112 255 255 255 255 
-0.201894 -0.780128 -1.33615 0.0572411 -0.863501 -0.501088 255 255 255 255 
-0.148294 -0.776756 -1.40996 0.038459 -0.790817 -0.610843 255 255 255 255 
0.0715164 -0.825554 -1.26117 -0.0579141 -0.836863 -0.544341 255 255 255 255 
0.083029 -0.905552 -1.16519 0.0469717 -0.854894 -0.516672 255 255 255 255 
0.467918 -1.3382 -0.443496 -0.0556826 -0.898787 -0.434836 255 255 255 255 
0.50624 -1.36945 -0.343755 -0.0458856 -0.841148 -0.538854 255 255 255 255 
0.561008 -1.24179 -0.619088 0.108602 -0.747001 -0.655893 255 255 255 255 
0.580811 -1.27227 -0.533858 0.0570501 -0.883985 -0.464022 255 255 255 255 
0.70114 -1.37943 -0.363235 0.254276 -0.797659 -0.546886 255 255 255 255 
0.634349 -1.41627 -0.294024 -0.11957 -0.901319 -0.416325 255 255 255 255 
0.174785 -0.844803 -1.26999 0.0451931 -0.90204 -0.429281 255 255 255 255 
0.216761 -0.898939 -1.16631 0.033305 -0.822836 -0.567302 255 255 255 255 
0.250922 -0.74678 -1.38017 -0.0447279 -0.830724 -0.554885 255 255 255 255 
0.285046 -0.76115 -1.35654 0.0564961 -0.796407 -0.602116 255 255 255 255 
0.362157 -0.876755 -1.13845 -0.0335326 -0.857618 -0.513193 255 255 255 255 
0.366139 -0.922727 -1.09676 -0.0579298 -0.811087 -0.58205 255 255 255 255 
0.700391 -1.03697 -0.970477 0.0240061 -0.841851 -0.539177 255 255 255 255 
0.702779 -1.06882 -0.862108 0.0589432 -0.842435 -0.535565 255 255 255 255 
0.713334 -0.928271 -1.07737 -0.0167005 -0.814994 -0.579228 255 255 255 255 
0.814265 -0.967979 -1.07799 -0.0448064 -0.719397 -0.693153 255 255 255 255 
0.886723 -1.10443 -0.845062 0.00882547 -0.78879 -0.614599 255 255 255 255 
0.829355 -1.10821 -0.767855 -0.0890868 -0.845379 -0.526685 255 255 255 255 
-1.34801 0.271163 -0.766032 -0.606292 -0.0719665 -0.791979 255 255 255 255 
-1.41837 0.209313 -0.74839 -0.548342 0.101369 -0.830088 255 255 255 255 
-1.15075 0.343113 -0.921206 -0.434406 0.0609777 -0.898651 255 255 255 255 
-1.07003 0.31766 -0.931412 -0.55709 0.0517953 -0.828835 255 255 255 255 
-1.15183 0.209531 -0.867307 -0.450226 -0.0419347 -0.891929 255 255 255 255 
-1.25646 0.174216 -0.817019 -0.540958 -0.149101 -0.827728 255 255 255 255 
-1.05864 0.771607 -0.988581 -0.592002 0.0187715 -0.805718 255 255 255 255 
-1.09219 0.72182 -0.944412 -0.642171 0.142507 -0.753199 255 255 255 255 
-0.869603 0.891721 -1.1104 -0.648113 0.155866 -0.745423 255 255 255 255 
-0.777028 0.833809 -1.10851 -0.581511 0.0973403 -0.807694 255 255 255 255 
-0.859817 0.723636 -1.10181 -0.525683 -0.0333198 -0.850028 255 255 255 255 
-0.982362 0.661055 -1.01466 -0.422175 -0.109449 -0.899883 255 255 255 255 
-0.546344 0.612179 -1.28601 -0.423755 0.18192 -0.88732 255 255 255 255 
-0.591452 0.536371 -1.24336 -0.562952 -0.125715 -0.816873 255 255 255 255 
-0.349566 0.659513 -1.41266 -0.430211 -0.0244821 -0.902397 255 255 255 255 
-0.270617 0.674861 -1.44457 -0.550122 0.235731 -0.801122 255 255 255 255 
-0.37005 0.545965 -1.36471 -0.38368 -0.0145602 -0.923351 255 255 255 255 
-0.476476 0.493866 -1.31627 -0.516487 -0.114782 -0.848567 255 255 255 255 
-1.13293 0.0967962 -0.933349 -0.61194 0.107576 -0.783554 255 255 255 255 
-1.194 0.0622372 -0.857288 -0.556855 0.00321152 -0.830604 255 255 255 255 
-0.886616 0.0440244 -1.05838 -0.500641 0.00610386 -0.865633 255 255 255 255 
-0.891171 -0.0361079 -1.07483 -0.493455 -0.100674 -0.863926 255 255 255 255 
-1.1089 -0.096798 -0.937747 -0.513376 -0.0723855 -0.855106 255 255 255 255 
-1.20809 -0.0921824 -0.863324 -0.511903 0.203518 -0.834587 255 255 255 255 
-0.295711 0.397402 -1.44354 -0.515492 -0.00470162 -0.856881 255 255 255 255 
-0.380081 0.380252 -1.35226 -0.543434 0.101105 -0.833341 255 255 255 255 
-0.106725 0.348083 -1.53624 -0.468112 0.0742534 -0.880544 255 255 255 255 
-0.090806 0.278511 -1.54174 -0.447637 0.0539504 -0.892586 255 255 255 255 
-0.292148 0.218264 -1.41786 -0.495103 0.00374482 -0.868826 255 255 255 255 
-0.390344 0.222059 -1.34294 -0.604883 0.0980379 -0.790257 255 255 255 255 
-0.296313 -0.178364 -1.40486 -0.459158 -0.0515074 -0.88686 255 255 255 255 
-0.39487 -0.215229 -1.35904 -0.61305 -0.136284 -0.778201 255 255 255 255 
-0.0863244 -0.262126 -1.58196 -0.489997 -0.07444 -0.86854 255 255 255 255 
-0.104195 -0.372006 -1.55888 -0.503567 -0.0530044 -0.862328 255 255 255 255 
-0.299672 -0.448541 -1.43363 -0.520925 0.0208619 -0.853348 255 255 255 255 
-0.409032 -0.389884 -1.36386 -0.516751 0.0473307 -0.854827 255 255 255 255 
-1.19898 -0.193007 -0.888345 -0.550465 0.0150835 -0.834722 255 255 255 255 
-1.26012 -0.150752 -0.828483 -0.488134 -0.0644612 -0.870385 255 255 255 255 
-1.08631 -0.328203 -0.928372 -0.522027 0.0378497 -0.852089 255 255 255 255 
-1.16608 -0.355202 -0.927101 -0.448574 0.0418534 -0.892765 255 255 255 255 
-1.35013 -0.273725 -0.799436 -0.473057 0.0926697 -0.876145 255 255 255 255 
-1.37369 -0.224634 -0.769249 -0.536641 0.0618615 -0.84154 255 255 255 255 
-0.355999 -0.540286 -1.38708 -0.612267 -0.00428235 -0.79064 255 255 255 255 
-0.458339 -0.460407 -1.33004 -0.442634 -0.0780241 -0.893302 255 255 255 255 
-0.27496 -0.654749 -1.45995 -0.422871 0.00470741 -0.906178 255 255 255 255 
-0.335038 -0.657384 -1.39921 -0.479133 0.0676134 -0.875134 255 255 255 255 
-0.562459 -0.599324 -1.27122 -0.556857 0.081009 -0.826649 255 255 255 255 
-0.579257 -0.547909 -1.22891 -0.473552 0.0449029 -0.87962 255 255 255 255 
-0.888737 -0.692075 -1.0758 -0.551834 0.0401137 -0.832989 255 255 255 255 
-0.985509 -0.686462 -1.04257 -0.512626 0.12229 -0.849859 255 255 255 255 
-0.806867 -0.824351 -1.13378 -0.475806 -0.13535 -0.869074 255 255 255 255 
-0.873967 -0.866724 -1.06634 -0.543312 -0.0275405 -0.839079 255 255 255 255 
-1.07624 -0.815576 -0.95138 -0.665835 -0.354004 -0.656769 255 255 255 255 
-1.07595 -0.715951 -0.948128 -0.605075 0.015631 -0.796015 255 255 255 255 
-0.87811 1.15855 0.644541 -0.840358 0.539991 0.0469936 255 255 255 255 
-0.928277 1.11154 0.689548 -0.872249 0.474525 -0.118352 255 255 255 255 
-0.903714 1.14202 0.371575 -0.818978 0.565131 0.0995045 255 255 255 255 
-0.929274 1.12185 0.308235 -0.946061 0.314124 0.0793351 255 255 255 255 
-1.00186 1.04475 0.424429 -0.837026 0.546771 0.0207059 255 255 255 255 
-0.956808 1.01314 0.556054 -0.872303 0.486288 0.0511137 255 255 255 255 
-0.696127 1.48565 0.151959 -0.576548 0.776522 0.254175 255 255 255 255 
-0.712985 1.40974 0.215333 -0.748357 0.663296 0.000402357 255 255 255 255 
-0.692416 1.48039 -0.123576 -0.777354 0.621441 -0.0976309 255 255 255 255 
-0.721579 1.42175 -0.187078 -0.888243 0.459334 0.00604408 255 255 255 255 
-0.777822 1.34375 -0.0511598 -0.743111 0.660454 -0.107643 255 255 255 255 
-0.76657 1.33236 0.0541995 -0.90033 0.434508 -0.0246789 255 255 255 255 
-0.901552 1.13674 -0.390134 -0.884613 0.465469 0.0282674 255 255 255 255 
-0.907895 1.10789 -0.340053 -0.89091 0.430835 -0.14374 255 255 255 255 
-0.920833 1.12896 -0.650779 -0.80451 0.593928 -0.00371423 255 255 255 255 
-0.922331 1.11859 -0.694716 -0.818955 0.572328 0.0418724 255 255 255 255 
-0.962549 1.02694 -0.556085 -0.858379 0.497452 -0.12541 255 255 255 255 
-0.98376 1.04249 -0.450532 -0.79218 0.577345 0.197798 255 255 255 255 
-1.02687 0.955939 0.396257 -0.849835 0.526078 0.031971 255 255 255 255 
-1.05684 0.915299 0.546276 -0.846859 0.528663 -0.0578384 255 255 255 255 
-1.10629 0.821678 0.21997 -0.838763 0.544061 -0.0217981 255 255 255 255 
-1.1539 0.72406 0.244611 -0.889207 0.447658 0.0944133 255 255 255 255 
-1.17499 0.748383 0.460121 -0.832784 0.553178 0.0215598 255 255 255 255 
-1.10945 0.815087 0.587746 -0.841041 0.515426 -0.164277 255 255 255 255 
-1.01794 0.963633 -0.580269 -0.769134 0.639086 -0.00133686 255 255 255 255 
-1.04442 0.914848 -0.465992 -0.863247 0.502195 0.0510334 255 255 255 255 
-1.09489 0.838361 -0.794577 -0.837515 0.545299 -0.0349098 255 255 255 255 
-1.1646 0.762698 -0.757736 -0.849015 0.507786 -0.146036 255 255 255 255 
-1.17951 0.762081 -0.533827 -0.846722 0.531966 0.00857098 255 255 255 255 
-1.13148 0.816427 -0.441385 -0.884676 0.460283 0.0740785 255 255 255 255 
-1.34698 0.441488 -0.431764 -0.859954 0.506495 0.0627835 255 255 255 255 
-1.34531 0.461659 -0.272345 -0.90721 0.398124 0.135899 255 255 255 255 
-1.39723 0.288175 -0.627508 -0.887936 0.458795 0.0328132 255 255 255 255 
-1.48434 0.230547 -0.574467 -0.891685 0.451557 0.0315428 255 255 255 255 
-1.438 0.267751 -0.315747 -0.757122 0.626123 0.186375 255 255 255 255 
-1.40741 0.311598 -0.261485 -0.849148 0.521019 -0.0865309 255 255 255 255 
-1.18243 0.694786 0.548597 -0.837073 0.547079 -0.0035897 255 255 255 255 
-1.16386 0.771604 0.668969 -0.858016 0.513526 0.0100191 255 255 255 255 
-1.26984 0.569675 0.507482 -0.747013 0.663787 0.0368566 255 255 255 255 
